ply
format ascii 1.0
comment Created by Open3D
element vertex 1196
property double x
property double y
property double z
property uchar red
property uchar green
property uchar blue
end_header
0.34273 -0.0617493 0.0616068 94 45 9
0.452251 -0.216887 0.0335419 77 76 91
0.407603 -0.163389 0.0464759 182 2 0
0.329207 0.00853004 0.0445479 35 10 0
0.342034 -0.102757 0.073495 200 159 7
0.383542 -0.136158 0.0531931 174 11 0
0.451138 -0.22475 0.0325184 39 37 43
0.334791 -0.0262463 0.0493887 50 9 0
0.33843 -0.0378228 0.0507297 134 89 81
0.400769 -0.158985 0.0464356 183 6 0
0.313226 -0.0152468 0.0608288 136 67 51
0.316261 -0.0233295 0.0614018 145 95 78
0.330586 -0.00381104 0.0435815 51 15 0
0.331824 -0.013491 0.0460864 46 10 0
0.335592 -0.0546288 0.057866 106 63 50
0.335667 -0.0894716 0.070209 102 64 18
0.327491 -0.0482998 0.0608234 144 99 91
0.449539 -0.144108 0.002105 161 0 1
0.444316 -0.219825 0.0332202 45 43 53
0.343298 -0.0633983 0.053225 84 52 25
0.376788 -0.131014 0.0519774 152 17 0
0.382672 -0.144243 0.0522454 189 9 0
0.444154 -0.201471 0.0258156 179 165 179
0.444595 -0.210059 0.0285761 35 33 36
0.337382 -0.0972522 0.0691131 156 115 0
0.408835 -0.165241 0.0388622 195 12 14
0.318693 -0.0314604 0.0586242 140 74 56
0.390027 -0.15299 0.0470805 183 7 0
0.32181 -0.0407176 0.0576986 133 70 55
0.345609 -0.11158 0.0645725 229 177 22
0.338357 -0.106296 0.0674242 182 139 0
0.344054 -0.0629749 0.0456879 87 51 32
0.337528 -0.0587209 0.0482572 96 61 48
0.315625 -0.0272344 0.052646 112 46 28
0.324503 -0.0457308 0.0526703 110 57 44
0.37525 -0.142804 0.04949 186 7 0
0.442438 -0.221171 0.026051 36 34 47
0.312683 -0.0198975 0.0511838 107 43 17
0.40083 -0.15926 0.0344988 184 2 0
0.329028 -0.0502713 0.0488665 103 60 47
0.363392 -0.122643 0.0493908 241 240 65
0.409458 -0.164814 0.0287891 175 0 0
0.318406 -0.0352487 0.0505812 115 55 42
0.369291 -0.137623 0.0495833 129 13 0
0.391451 -0.154276 0.038228 179 6 0
0.333271 -0.101536 0.0636529 115 70 25
0.382799 -0.148412 0.0419989 182 8 0
0.44589 -0.203034 0.0124115 185 168 184
0.432623 -0.154431 0.00295459 145 83 81
0.344444 -0.0627293 0.0373251 88 54 38
0.44382 -0.2118 0.0156106 25 19 26
0.322339 -0.0414282 0.045897 109 52 38
0.336371 -0.11236 0.0628547 179 134 0
0.442521 -0.194969 0.00895383 55 39 63
0.315758 -0.0279433 0.0448809 109 43 25
0.336693 -0.0566097 0.0382151 100 62 51
0.309387 -0.0140261 0.0424669 49 43 31
0.362841 -0.129088 0.0442324 222 172 41
0.373089 -0.142847 0.0413497 179 7 0
0.387042 -0.151223 0.0331598 183 3 0
0.402295 -0.160586 0.0233234 182 3 0
0.305094 -0.00609561 0.03969 61 12 5
0.329533 -0.0505259 0.0376602 99 57 47
0.343876 -0.0613162 0.0290648 94 56 45
0.313199 -0.0219882 0.0374452 79 29 17
0.3239 -0.0440793 0.0376962 100 50 38
0.391662 -0.154364 0.026788 180 6 0
0.436813 -0.211121 0.0124563 20 18 24
0.292354 0.0041425 0.043065 56 27 20
0.408664 -0.164867 0.0158086 181 0 0
0.318391 -0.0339484 0.036051 101 44 30
0.375646 -0.144188 0.0342135 182 8 0
0.347403 -0.0619282 0.0221453 86 55 41
0.380871 -0.147873 0.0303754 180 4 0
0.337141 -0.0564087 0.0275506 100 65 52
0.3323 -0.110055 0.054951 138 103 0
0.297758 -0.00154773 0.0367258 47 19 5
0.334691 -0.120136 0.0563943 190 147 8
0.431395 -0.202689 0.00859629 24 23 23
0.330174 -0.0507449 0.029049 97 55 45
0.323333 -0.0408513 0.0296269 92 49 36
0.349759 -0.108182 0.0362396 209 166 10
0.369939 -0.139098 0.0322485 112 13 0
0.305356 -0.0121942 0.0316386 22 15 9
0.341027 -0.0575418 0.0204753 93 61 54
0.358803 -0.133567 0.0386182 250 193 29
0.395869 -0.156615 0.0163377 180 9 0
0.431857 -0.216906 0.0105672 19 18 18
0.319661 -0.0338187 0.0265886 67 38 31
0.402149 -0.161054 0.010791 180 0 0
0.282769 0.007541 0.0396053 53 40 33
0.307133 -0.0201043 0.0304623 21 15 6
0.309991 -0.0283044 0.0305932 50 8 0
0.377111 -0.144976 0.0237859 181 8 0
0.408082 -0.165059 0.00529973 84 57 36
0.299124 -0.00165076 0.0270925 24 17 11
0.32919 -0.0470673 0.0209452 82 50 46
0.347713 -0.0580457 0.00938156 23 20 6
0.386154 -0.151327 0.0176272 180 6 0
0.286751 0.000510197 0.0361468 48 45 31
0.337778 -0.0528675 0.0148308 86 57 52
0.351133 -0.11745 0.0325402 249 180 31
0.324089 -0.0388509 0.0196189 64 37 29
0.319263 -0.0304352 0.0190028 44 24 13
0.328908 -0.117553 0.0508281 142 110 0
0.282315 -0.00651558 0.0403484 82 15 4
0.3713 -0.139793 0.0217849 112 12 0
0.390318 -0.154029 0.011143 180 6 0
0.332361 -0.127357 0.0496748 197 154 15
0.356451 -0.138426 0.032813 251 192 33
0.29003 -0.00101471 0.0275681 77 17 7
0.300986 -0.00572639 0.0197195 23 17 8
0.377585 -0.146055 0.0160478 178 5 0
0.394688 -0.15777 0.00587409 81 36 31
0.324894 -0.0346684 0.0103851 25 14 10
0.330748 -0.0437758 0.00933684 23 19 12
0.285187 -0.0193234 0.0387664 80 13 4
0.293961 -0.00743363 0.0248773 68 10 0
0.303056 -0.0445602 0.0343408 72 5 0
0.323041 -0.0240521 0.00587735 18 14 10
0.346375 -0.116207 0.0267378 208 163 15
0.374761 -0.128235 0.00602 36 35 11
0.372185 -0.138266 0.0113223 78 15 0
0.384766 -0.151444 0.00594838 93 29 17
0.278124 -0.00138962 0.0315113 34 27 21
0.291744 -0.0369842 0.0362785 74 9 0
0.327413 -0.121199 0.0434017 120 96 1
0.281225 -0.0152853 0.0334421 39 24 14
0.285901 -0.026494 0.0346042 68 10 0
0.296073 -0.0426162 0.0329816 76 5 0
0.347117 -0.123473 0.0248169 247 178 29
0.30173 -0.0507377 0.0306581 79 9 0
0.305675 -0.057266 0.0301702 43 9 0
0.352501 -0.142778 0.0275118 252 196 42
0.327892 -0.128634 0.0431605 168 129 0
0.331073 -0.135359 0.04352 206 163 10
0.374692 -0.145379 0.00541704 67 53 36
0.500411 0.135083 0.00122442 0 112 101
0.534577 0.0923162 -0.00885141 0 112 101
0.447629 -0.250353 0.00808684 0 112 101
0.34068 -0.170045 0.00268817 0 112 101
0.707461 -0.0115979 0.00789079 0 112 101
0.22047 0.0162832 0.00854475 0 112 101
0.536689 -0.133922 -0.00973546 0 112 101
0.61011 -0.14617 -0.000567898 0 112 101
0.470097 0.192014 0.000381717 0 112 101
0.702945 0.229188 -0.0075715 0 112 101
0.399533 0.228329 0.00919142 0 112 101
0.750413 -0.0550852 -0.00904884 0 112 101
0.331652 -0.250686 0.0079867 0 112 101
0.378342 -0.18212 -0.00202528 0 112 101
0.338206 0.0577194 -0.00673216 0 112 101
0.47251 -0.0456236 0.00937767 0 112 101
0.53688 0.121967 -0.00220699 0 112 101
0.588489 -0.231507 -0.00075176 0 112 101
0.475464 -0.0937789 -0.00385902 0 112 101
0.724038 0.0950335 0.00260613 0 112 101
0.588298 0.224163 0.00913189 0 112 101
0.688074 0.186969 -0.00690439 0 112 101
0.571647 -0.0417609 -0.000939112 0 112 101
0.562584 -0.221014 0.000107723 0 112 101
0.461559 0.204318 -0.00103506 0 112 101
0.206056 -0.195366 -0.00348814 0 112 101
0.404996 0.275792 0.00160688 0 112 101
0.374714 -0.211197 0.00410178 0 112 101
0.425168 0.0109528 -0.00347415 0 112 101
0.71761 0.149437 0.00945346 0 112 101
0.661655 0.0170748 0.00159738 0 112 101
0.700168 -0.0796979 0.00934122 0 112 101
0.351103 -0.219247 -0.00463489 0 112 101
0.279701 -0.17148 0.00540288 0 112 101
0.453406 -0.0788778 0.00784539 0 112 101
0.770284 -0.217981 -0.00577703 0 112 101
0.37707 -0.194492 0.00116621 0 112 101
0.317884 0.0300987 0.00933504 0 112 101
0.295323 0.29429 -0.00344934 0 112 101
0.23971 -0.0343756 0.00983558 0 112 101
0.399888 -0.0211906 0.00727937 0 112 101
0.460912 0.163806 -0.00878936 0 112 101
0.396557 0.189108 -0.00370932 0 112 101
0.390293 0.116534 -0.00257693 0 112 101
0.391499 0.188821 -0.00174859 0 112 101
0.413469 0.219162 -0.00749765 0 112 101
0.661108 -0.113323 -0.0094615 0 112 101
0.425427 -0.0336641 -0.00678644 0 112 101
0.650858 0.158001 0.00266697 0 112 101
0.258514 -0.276112 0.00938284 0 112 101
0.748216 0.0877334 0.00662543 0 112 101
0.460265 -0.299804 -0.0087767 0 112 101
0.561364 -0.293699 -0.000353057 0 112 101
0.313559 0.172822 -0.00279549 0 112 101
0.456053 0.0817534 -0.00916871 0 112 101
0.275761 0.0861604 -0.0062167 0 112 101
0.669341 0.252192 0.00923577 0 112 101
0.536976 0.13262 0.00321273 0 112 101
0.561731 0.0714502 0.00610651 0 112 101
0.76983 -0.10462 -0.0093512 0 112 101
0.425862 -0.284366 0.00936925 0 112 101
0.320157 -0.152693 0.00440393 0 112 101
0.763773 0.0353963 0.00984274 0 112 101
0.677935 0.125147 0.00894866 0 112 101
0.789093 -0.0141001 0.00114685 0 112 101
0.304959 0.0408444 -0.00585118 0 112 101
0.214875 0.265514 -0.0080743 0 112 101
0.447777 0.118653 -0.000334067 0 112 101
0.224845 -0.219107 0.00824389 0 112 101
0.574253 0.231946 0.0086896 0 112 101
0.703294 0.160518 0.00243503 0 112 101
0.790947 0.295234 -0.00732166 0 112 101
0.505167 0.0554292 -0.00930001 0 112 101
0.258987 0.0349672 0.00398209 0 112 101
0.61014 -0.233853 0.00355507 0 112 101
0.394279 -0.101471 0.00472837 0 112 101
0.790146 -0.180853 0.00384613 0 112 101
0.608519 -0.0788295 -0.00677936 0 112 101
0.668349 -0.115215 -0.00306561 0 112 101
0.52969 -0.242305 0.00553138 0 112 101
0.512494 0.207929 -0.00305992 0 112 101
0.492402 0.0232153 0.00967724 0 112 101
0.741274 0.134801 -0.00758176 0 112 101
0.238275 -0.117627 -0.00719976 0 112 101
0.43163 0.162466 -0.0061065 0 112 101
0.664185 -0.287068 -0.00914024 0 112 101
0.797128 0.293701 -0.00263844 0 112 101
0.595857 0.00522091 -0.0070966 0 112 101
0.325368 0.118104 0.00430063 0 112 101
0.53989 0.252066 0.00262599 0 112 101
0.73329 -0.0819796 0.00312348 0 112 101
0.527139 0.00466425 0.00645877 0 112 101
0.313379 0.260837 -0.00751718 0 112 101
0.722134 0.0150641 0.00444005 0 112 101
0.473938 0.15118 -0.0040168 0 112 101
0.201814 0.170842 0.00874708 0 112 101
0.6447 -0.151213 0.00564564 0 112 101
0.59828 -0.220984 0.00502406 0 112 101
0.450892 -0.173204 -0.00983846 0 112 101
0.604359 -0.0236952 0.00442481 0 112 101
0.241795 -0.0367892 -0.00970569 0 112 101
0.336484 -0.0997937 0.00371314 0 112 101
0.74677 -0.0362751 -0.00630785 0 112 101
0.528661 0.117493 -0.00467622 0 112 101
0.412325 -0.260067 0.0014991 0 112 101
0.628623 0.0621739 -0.00525344 0 112 101
0.68068 0.285785 -0.00382566 0 112 101
0.470231 -0.168443 -0.00177916 0 112 101
0.316519 -0.180504 0.00667459 0 112 101
0.403649 -0.136054 0.00526797 0 112 101
0.56558 -0.262919 0.00646932 0 112 101
0.320346 0.114629 -0.000284726 0 112 101
0.206951 -0.188104 -0.00866216 0 112 101
0.451655 -0.0546147 0.00221576 0 112 101
0.760407 0.173361 0.00912889 0 112 101
0.714827 -0.0667812 -0.00527087 0 112 101
0.237198 0.145067 -0.00903753 0 112 101
0.550305 0.0821937 -0.00886205 0 112 101
0.327857 -0.121038 -0.00795147 0 112 101
0.360935 -0.00756001 0.00208215 0 112 101
0.283445 -0.209523 -0.00295265 0 112 101
0.475929 0.141125 0.00896807 0 112 101
0.577596 -0.0499624 0.005133 0 112 101
0.355893 -0.214057 -0.00387408 0 112 101
0.626254 -0.0515025 0.00109279 0 112 101
0.329228 -0.19658 0.00362234 0 112 101
0.367456 -0.213459 0.00465679 0 112 101
0.610713 0.274213 0.00562043 0 112 101
0.797943 0.0136767 0.00799716 0 112 101
0.799391 0.147055 -0.00488782 0 112 101
0.38788 -0.10285 0.00233802 0 112 101
0.701848 -0.00293794 0.00590148 0 112 101
0.753387 -0.299609 0.00138101 0 112 101
0.344578 -0.292025 0.00593998 0 112 101
0.342121 0.227497 -0.00130762 0 112 101
0.5352 -0.192092 0.000171509 0 112 101
0.785962 0.126298 0.00248462 0 112 101
0.271814 -0.270131 -0.00409214 0 112 101
0.303522 -0.00505829 0.00934947 0 112 101
0.699639 -0.222422 -0.00406433 0 112 101
0.507807 0.072097 -8.07347e-05 0 112 101
0.479203 -0.092528 0.00597188 0 112 101
0.38899 -0.169804 0.00333735 0 112 101
0.790107 -0.102842 -0.00340835 0 112 101
0.773211 0.197895 -0.00175342 0 112 101
0.692925 -0.258972 0.00879062 0 112 101
0.609002 0.260184 0.00985445 0 112 101
0.454633 0.262334 -0.00777609 0 112 101
0.207939 0.0452273 0.0078566 0 112 101
0.293301 0.213062 -0.00462821 0 112 101
0.528409 0.196537 0.00511367 0 112 101
0.493043 -0.216127 -0.00930577 0 112 101
0.309184 0.181676 -0.00133415 0 112 101
0.653209 -0.0754465 -0.0090334 0 112 101
0.697321 -0.0900926 -0.00333852 0 112 101
0.453143 -0.152122 0.000163956 0 112 101
0.280888 0.27742 0.00837859 0 112 101
0.429371 0.157541 0.00673097 0 112 101
0.608929 0.294306 -0.00767833 0 112 101
0.603443 -0.238887 0.0047463 0 112 101
0.59462 0.289118 0.00499728 0 112 101
0.5434 -0.212189 -0.00521578 0 112 101
0.398416 -0.0516631 0.000473773 0 112 101
0.786803 0.206614 0.00448128 0 112 101
0.503044 0.215122 0.00531718 0 112 101
0.4053 0.267465 -0.00828722 0 112 101
0.543153 0.273729 -0.00825194 0 112 101
0.539923 -0.0875585 0.00410627 0 112 101
0.316893 -0.188866 -0.00804729 0 112 101
0.705661 0.272112 0.00139869 0 112 101
0.316084 -0.0976336 -0.00922278 0 112 101
0.767562 -0.0753985 0.00372287 0 112 101
0.296593 0.0557585 0.00160077 0 112 101
0.597004 0.0306996 -0.00300803 0 112 101
0.209549 -0.224839 -0.00453256 0 112 101
0.79905 -0.239345 -0.00343659 0 112 101
0.599275 0.266362 0.00634343 0 112 101
0.674721 -0.0857913 -0.00803713 0 112 101
0.632544 0.157105 -0.00651063 0 112 101
0.681398 -0.216272 -0.00953274 0 112 101
0.339227 -0.0895006 0.00946787 0 112 101
0.68683 0.0591705 0.00748026 0 112 101
0.329354 -0.275845 0.00871422 0 112 101
0.566731 0.205796 0.00392044 0 112 101
0.336571 -0.061598 -0.00944245 0 112 101
0.231853 0.233875 0.00455735 0 112 101
0.375126 0.166525 -0.00238077 0 112 101
0.687692 -0.108546 -0.00292234 0 112 101
0.607918 -0.243444 0.00872869 0 112 101
0.312644 0.128915 0.00866222 0 112 101
0.493866 -0.205426 -0.00754034 0 112 101
0.378248 0.265628 0.00290735 0 112 101
0.662722 -0.178693 -0.0053759 0 112 101
0.447179 0.152073 -0.00144039 0 112 101
0.735155 -0.0120591 0.008685 0 112 101
0.209834 0.288137 -0.00725738 0 112 101
0.502408 0.0926927 -0.0030684 0 112 101
0.308112 0.241723 0.00263671 0 112 101
0.363493 -0.0633849 0.00106056 0 112 101
0.745819 -0.0903858 0.00648762 0 112 101
0.662491 0.131647 -0.00246747 0 112 101
0.482566 -0.0252171 -0.00600656 0 112 101
0.265049 0.190396 0.00512921 0 112 101
0.231098 0.211972 -0.00779931 0 112 101
0.6679 -0.245672 -0.00909615 0 112 101
0.293282 0.298596 -0.00870816 0 112 101
0.705241 -0.0757628 -0.00260342 0 112 101
0.76824 0.0695885 -0.00351228 0 112 101
0.750598 -0.00955499 -0.00512615 0 112 101
0.585503 0.180643 0.000205433 0 112 101
0.358428 -0.0709445 -0.0024563 0 112 101
0.566164 -0.201134 -0.000734699 0 112 101
0.640465 0.0143445 -0.0013042 0 112 101
0.736736 -0.0475776 -0.00963322 0 112 101
0.664479 -0.213392 -0.00650927 0 112 101
0.796566 -0.0431903 -0.00733347 0 112 101
0.333416 -0.242746 -0.00752343 0 112 101
0.747177 0.0849127 0.00409224 0 112 101
0.706671 0.173952 -0.00806805 0 112 101
0.283886 0.00155368 -0.001254 0 112 101
0.373644 0.11942 -0.000562875 0 112 101
0.34094 -0.255327 -0.00877007 0 112 101
0.203454 0.269103 0.00270557 0 112 101
0.33107 0.0499122 0.0018111 0 112 101
0.657559 0.288647 -0.00801347 0 112 101
0.292212 -0.273731 0.00404285 0 112 101
0.738103 -0.160641 -0.00167696 0 112 101
0.222992 -0.15642 -0.00438901 0 112 101
0.225265 -0.291811 0.00585168 0 112 101
0.269499 -0.038976 -0.00925342 0 112 101
0.584436 0.152361 0.00385671 0 112 101
0.774434 0.0375376 0.0071106 0 112 101
0.333145 0.144381 0.00868233 0 112 101
0.334712 -0.0700898 0.00985981 0 112 101
0.513174 0.0741846 -0.00786622 0 112 101
0.598739 0.250234 0.0063553 0 112 101
0.321668 0.113036 -0.00588528 0 112 101
0.573984 0.264907 -0.00613059 0 112 101
0.263496 0.154493 0.00500274 0 112 101
0.437868 0.0605736 0.00315301 0 112 101
0.260921 -0.260788 0.00810056 0 112 101
0.382193 -0.152572 -0.00374491 0 112 101
0.692594 -0.272838 0.00932174 0 112 101
0.776311 -0.288143 -0.00216801 0 112 101
0.571928 -0.161302 -0.00983307 0 112 101
0.691308 0.087019 0.0020156 0 112 101
0.70397 -0.163344 -0.00274452 0 112 101
0.643365 0.223832 -0.00683839 0 112 101
0.2813 0.0049839 0.00862269 0 112 101
0.243663 0.265966 0.00392418 0 112 101
0.390956 0.194904 -0.00518913 0 112 101
0.742892 -0.164004 -0.00483293 0 112 101
0.313504 0.182832 -0.00946597 0 112 101
0.281684 -0.106909 -0.00604768 0 112 101
0.711121 -0.153626 0.00630065 0 112 101
0.477226 -0.097651 -0.00047557 0 112 101
0.714918 0.185139 -0.00268929 0 112 101
0.325442 0.126328 0.00889686 0 112 101
0.756624 0.110966 -0.00191472 0 112 101
0.202088 -0.0317584 -0.00860518 0 112 101
0.740977 -0.0902612 0.00365402 0 112 101
0.405792 0.184371 0.00945457 0 112 101
0.272411 -0.0925581 0.00711438 0 112 101
0.332721 -0.177416 0.00763342 0 112 101
0.314091 -0.171913 -0.00609346 0 112 101
0.731613 -0.177616 0.00721858 0 112 101
0.404796 -0.243344 0.00210639 0 112 101
0.470894 0.277188 -0.00976833 0 112 101
0.293975 -0.0714526 -0.00520331 0 112 101
0.665732 -0.214057 0.00450912 0 112 101
0.381298 0.233467 0.00446672 0 112 101
0.54883 0.133655 0.00376713 0 112 101
0.517495 -0.154086 0.0010927 0 112 101
0.521089 -0.067419 -0.00794022 0 112 101
0.299591 -0.0896274 -0.00653543 0 112 101
0.569086 -0.142338 0.00817629 0 112 101
0.477197 0.232166 -0.00792794 0 112 101
0.636162 -0.159038 -0.00484664 0 112 101
0.609924 0.00110368 -0.000699521 0 112 101
0.235844 -0.113083 0.00202886 0 112 101
0.592333 0.222956 0.00318061 0 112 101
0.304049 -0.167041 -0.0007502 0 112 101
0.227043 -0.0220347 0.00800697 0 112 101
0.436441 -0.0458365 -0.00066948 0 112 101
0.544347 0.119493 -0.0056921 0 112 101
0.381806 0.0470148 0.00800534 0 112 101
0.240292 0.259633 0.000451136 0 112 101
0.492691 0.168897 -0.00768157 0 112 101
0.315094 0.202544 -0.00239559 0 112 101
0.719652 0.243808 -0.00625581 0 112 101
0.412691 0.299993 0.00359644 0 112 101
0.618707 -0.0759345 0.000984541 0 112 101
0.672858 -0.0909164 0.00630289 0 112 101
0.379665 -0.226679 -0.00787382 0 112 101
0.789009 -0.160158 0.00190443 0 112 101
0.273112 0.059395 0.00172583 0 112 101
0.340293 -0.000831012 -0.00926578 0 112 101
0.218628 0.0204332 0.00762838 0 112 101
0.728995 0.241209 -0.00790516 0 112 101
0.481003 0.292113 0.00719579 0 112 101
0.430052 -0.247134 -0.00525971 0 112 101
0.749258 0.115351 0.00250145 0 112 101
0.750946 0.245401 0.00497435 0 112 101
0.318839 -0.17209 0.00728474 0 112 101
0.485904 -0.232998 0.00354016 0 112 101
0.408637 -0.00947406 0.00977942 0 112 101
0.462345 0.276655 -0.00101437 0 112 101
0.720335 0.121456 -0.00845164 0 112 101
0.554069 -0.221734 -0.000949928 0 112 101
0.693623 -0.139022 0.00473398 0 112 101
0.654536 0.254351 -0.00824684 0 112 101
0.546078 0.2259 0.0041058 0 112 101
0.5308 -0.0949308 -0.00368533 0 112 101
0.594885 0.0986041 0.00220221 0 112 101
0.588757 -0.221526 0.00154464 0 112 101
0.405941 0.0439903 0.00360411 0 112 101
0.547284 -0.0738447 0.00981043 0 112 101
0.609048 0.134989 0.00608229 0 112 101
0.583296 -0.0963381 -0.00858569 0 112 101
0.259286 -0.220072 0.00358047 0 112 101
0.229767 -0.294208 0.00743903 0 112 101
0.660237 -0.282989 0.00647071 0 112 101
0.598192 -0.000711818 -0.00776249 0 112 101
0.379447 0.114001 0.00940562 0 112 101
0.756783 -0.259644 0.000334675 0 112 101
0.56439 0.177123 0.0052099 0 112 101
0.328745 0.292101 -0.00717401 0 112 101
0.421676 -0.293903 0.00335131 0 112 101
0.246968 0.057674 -0.00583581 0 112 101
0.737801 -0.198246 0.0095126 0 112 101
0.679692 0.251467 0.00227165 0 112 101
0.664127 0.0687236 -0.00777236 0 112 101
0.335409 0.171112 0.00627662 0 112 101
0.684619 -0.00478728 0.00934718 0 112 101
0.46358 0.190701 -0.00582325 0 112 101
0.355083 0.110981 -0.0069895 0 112 101
0.701996 -0.136636 -0.00745394 0 112 101
0.254537 0.192269 0.00289881 0 112 101
0.280259 -0.265338 -0.00566531 0 112 101
0.384906 0.222539 0.00608794 0 112 101
0.678117 0.137452 0.00828831 0 112 101
0.711912 0.242292 -0.000112951 0 112 101
0.347313 0.0559763 0.00569531 0 112 101
0.743029 -0.111913 -0.00272044 0 112 101
0.334005 -0.17928 0.000795075 0 112 101
0.572558 -0.24082 0.00610747 0 112 101
0.720169 -0.142215 -0.00123505 0 112 101
0.5277 -0.186247 -0.00850809 0 112 101
0.766164 -0.277821 -0.00300337 0 112 101
0.769703 -0.277721 -0.0057392 0 112 101
0.262937 0.0565165 -0.00879696 0 112 101
0.753882 -0.0900543 0.00942722 0 112 101
0.624948 0.0339995 -0.00211501 0 112 101
0.765294 0.15486 -0.0077646 0 112 101
0.427058 0.179288 -0.00899788 0 112 101
0.266068 -0.226133 -0.0079704 0 112 101
0.505809 0.0726345 -0.00676864 0 112 101
0.780159 -0.0119606 -0.00961019 0 112 101
0.501944 -0.10007 0.00395296 0 112 101
0.442852 -0.0947373 0.00413654 0 112 101
0.515391 -0.00325057 -0.00862042 0 112 101
0.788144 0.064948 -0.000221687 0 112 101
0.496599 -0.250323 0.00807652 0 112 101
0.407133 0.0684403 -0.00425922 0 112 101
0.316287 0.0799687 -0.00270236 0 112 101
0.486936 0.101858 0.00519403 0 112 101
0.31882 -0.17778 0.00251751 0 112 101
0.231238 -0.0734543 -0.00645591 0 112 101
0.37442 0.245498 -0.002578 0 112 101
0.262896 0.207062 -0.00722166 0 112 101
0.309231 -0.00767014 -0.00626534 0 112 101
0.437381 -0.0747125 -0.0079495 0 112 101
0.68702 -0.0963584 -0.00237329 0 112 101
0.763668 -0.271489 0.00607553 0 112 101
0.373152 0.179112 -0.00323184 0 112 101
0.203106 -0.229999 -0.00905155 0 112 101
0.347176 -0.156832 -0.00269533 0 112 101
0.586179 -0.0238435 -0.00313759 0 112 101
0.431553 0.250106 0.00416309 0 112 101
0.405269 0.0629297 0.00808304 0 112 101
0.525061 0.148647 0.00430102 0 112 101
0.404626 -0.18101 0.00534142 0 112 101
0.426937 -0.121869 0.000700114 0 112 101
0.282839 0.0115023 0.00435912 0 112 101
0.372926 -0.269061 -0.000647918 0 112 101
0.428346 -0.224154 0.00787683 0 112 101
0.514007 -0.0482009 0.00811763 0 112 101
0.675884 -0.186354 0.00367147 0 112 101
0.551164 0.297953 -0.00202942 0 112 101
0.632654 -0.058652 -0.00841574 0 112 101
0.328855 -0.0717718 0.00669459 0 112 101
0.480994 -0.216268 0.00304349 0 112 101
0.526822 -0.247936 -0.00298775 0 112 101
0.582788 0.15067 0.00801047 0 112 101
0.523962 -0.0212296 0.00596008 0 112 101
0.382552 0.296861 -0.00221756 0 112 101
0.279594 -0.248997 -0.00732113 0 112 101
0.650836 0.0562027 -0.0026763 0 112 101
0.2816 -0.26259 0.00329891 0 112 101
0.375622 0.233435 -0.00996213 0 112 101
0.762795 0.0582573 0.00664027 0 112 101
0.260824 0.268407 0.00820569 0 112 101
0.33013 0.255711 0.00162379 0 112 101
0.775204 0.228771 0.0078162 0 112 101
0.549208 -0.153176 0.00411156 0 112 101
0.442716 -0.0668764 -0.00422587 0 112 101
0.209718 0.176398 -0.00544876 0 112 101
0.477273 -0.124362 -0.00262497 0 112 101
0.570459 -0.254335 0.00386816 0 112 101
0.481128 -0.145883 -0.00772281 0 112 101
0.615957 -0.211479 -0.00747969 0 112 101
0.225372 -0.0232682 0.00547181 0 112 101
0.606078 -0.0239441 0.00164884 0 112 101
0.646212 0.20107 0.00271269 0 112 101
0.797189 -0.0197957 0.000996073 0 112 101
0.625526 0.276317 0.0078491 0 112 101
0.337625 -0.170205 -0.00793294 0 112 101
0.524229 -0.263125 0.0049105 0 112 101
0.459404 -0.099072 -0.0089137 0 112 101
0.790462 -0.0531838 -0.00645583 0 112 101
0.566951 0.263046 0.00556506 0 112 101
0.63531 -0.240609 0.00390768 0 112 101
0.393434 -0.0127935 0.00194532 0 112 101
0.745534 -0.135682 -0.00775416 0 112 101
0.385904 0.119239 0.000680358 0 112 101
0.436797 0.0993105 -0.0081932 0 112 101
0.522772 0.258086 0.00306381 0 112 101
0.440929 -0.0220875 -0.00483208 0 112 101
0.558505 0.165051 0.00178177 0 112 101
0.550018 -0.0483394 -0.00440147 0 112 101
0.38313 0.274631 -2.87936e-05 0 112 101
0.481381 0.268574 -0.00253799 0 112 101
0.214039 0.195079 -0.00199598 0 112 101
0.737568 -0.204952 -0.00934816 0 112 101
0.528498 0.278026 0.00657953 0 112 101
0.466943 0.0390507 0.00196397 0 112 101
0.272283 0.210791 -0.00544947 0 112 101
0.228192 0.167127 0.00296933 0 112 101
0.253839 -0.0569844 0.000500231 0 112 101
0.633521 -0.206593 0.00210478 0 112 101
0.679264 0.106466 0.00431829 0 112 101
0.425507 -0.204142 0.00781802 0 112 101
0.509191 0.134162 -0.00409896 0 112 101
0.52766 0.191757 0.000678781 0 112 101
0.522097 0.179127 -0.00152461 0 112 101
0.516002 -0.249432 0.00263005 0 112 101
0.408502 -0.030089 -0.0081556 0 112 101
0.789557 -0.228938 -0.00719178 0 112 101
0.245767 -0.278182 -0.0078495 0 112 101
0.373412 0.106518 -0.00596182 0 112 101
0.607365 0.170162 0.00936548 0 112 101
0.700189 -0.0364687 0.000743539 0 112 101
0.330059 -0.0243429 0.000217337 0 112 101
0.592719 0.0558071 0.00220568 0 112 101
0.412208 0.0774909 -0.00279672 0 112 101
0.649298 0.274952 0.008779 0 112 101
0.538622 0.0105864 0.00747887 0 112 101
0.327384 0.192124 0.00474769 0 112 101
0.308519 0.124024 0.00446083 0 112 101
0.527281 -0.128308 -0.00918236 0 112 101
0.564648 0.0873259 -0.00969144 0 112 101
0.444975 -0.0264705 0.00921583 0 112 101
0.521352 0.015759 -0.00980447 0 112 101
0.704686 0.22166 -4.6401e-05 0 112 101
0.560148 -0.238713 0.00975614 0 112 101
0.239894 -0.154212 0.00878197 0 112 101
0.232012 0.0677699 0.00646873 0 112 101
0.379533 0.0543127 0.00731564 0 112 101
0.213137 -0.149555 -0.00395229 0 112 101
0.437714 -0.143724 0.00381264 0 112 101
0.412469 0.165539 0.00907504 0 112 101
0.732643 0.138044 -0.0045579 0 112 101
0.31915 0.166832 0.000606339 0 112 101
0.398712 0.0319602 0.00895241 0 112 101
0.321654 -0.0783737 -0.00991211 0 112 101
0.795011 0.0991733 0.00746462 0 112 101
0.481563 0.213089 -0.00192164 0 112 101
0.63539 0.12533 -0.00860089 0 112 101
0.647391 0.116392 -0.0095264 0 112 101
0.240562 -0.227431 0.00606583 0 112 101
0.500731 0.239516 0.00894612 0 112 101
0.373909 -0.000100031 -0.00948628 0 112 101
0.661017 -0.166888 0.00353178 0 112 101
0.424336 -0.193278 -0.00547648 0 112 101
0.720814 -0.288905 -0.00924918 0 112 101
0.666076 -0.0714777 0.00760885 0 112 101
0.459787 -0.110446 -0.00816069 0 112 101
0.409894 0.221193 -0.00938984 0 112 101
0.78201 -0.00690361 1.17455e-05 0 112 101
0.683477 0.189152 -0.00441608 0 112 101
0.659034 -0.0472648 0.00047728 0 112 101
0.733063 -0.13114 -0.00534556 0 112 101
0.787792 0.0578668 0.00862927 0 112 101
0.349092 0.0661939 0.00259326 0 112 101
0.421393 0.186005 0.00899439 0 112 101
0.551714 0.289568 -0.000612657 0 112 101
0.500521 0.293028 -0.00691981 0 112 101
0.493061 0.122199 -0.00819868 0 112 101
0.54288 0.113669 0.00574131 0 112 101
0.469706 -0.00224509 0.00966575 0 112 101
0.747814 -0.0790819 0.00351516 0 112 101
0.526273 -0.00223853 0.00226587 0 112 101
0.420026 0.184781 -0.000589861 0 112 101
0.436669 -0.216833 -0.00860382 0 112 101
0.788049 0.0758122 -0.00648374 0 112 101
0.554131 0.176525 -0.00333576 0 112 101
0.212467 0.222811 -0.00692227 0 112 101
0.307517 0.269315 0.0024282 0 112 101
0.732613 0.025827 0.00853084 0 112 101
0.266459 -0.154801 0.00823799 0 112 101
0.47601 -0.205269 0.00187155 0 112 101
0.630853 0.0870698 0.00718113 0 112 101
0.293888 -0.242319 0.00812273 0 112 101
0.400661 0.2669 0.00292415 0 112 101
0.442851 -0.0853054 -0.00321084 0 112 101
0.256513 -0.280581 0.00295151 0 112 101
0.376278 0.139078 -0.00783877 0 112 101
0.443848 0.257609 -0.00624643 0 112 101
0.25631 -0.131998 0.00373322 0 112 101
0.499908 -0.00100144 -0.00163631 0 112 101
0.481374 0.294565 0.00260826 0 112 101
0.521037 0.16935 0.00784805 0 112 101
0.53406 0.000124886 0.00308511 0 112 101
0.386023 0.0787296 -0.00183933 0 112 101
0.714154 -0.190393 0.00619627 0 112 101
0.587552 -0.0256418 0.00698033 0 112 101
0.562564 0.0613653 -0.0088114 0 112 101
0.756614 -0.163765 0.00968212 0 112 101
0.496534 -0.24365 -0.00715812 0 112 101
0.769563 0.194686 -0.00313155 0 112 101
0.753121 -0.0967197 0.00753917 0 112 101
0.49817 -0.00140682 -0.00556953 0 112 101
0.710928 0.00461073 -0.00232535 0 112 101
0.342775 -0.175962 -0.000560469 0 112 101
0.741064 -0.0555017 0.00331329 0 112 101
0.299097 -0.281989 -0.00728054 0 112 101
0.71318 0.0474227 0.00210639 0 112 101
0.616021 -0.283687 -0.00838551 0 112 101
0.271087 0.0341066 -0.00756714 0 112 101
0.521354 -0.289415 0.00569241 0 112 101
0.440778 -0.0603453 0.000568925 0 112 101
0.680314 0.284705 -0.00958857 0 112 101
0.588384 -0.299582 -0.00460936 0 112 101
0.603548 0.00459964 0.0087862 0 112 101
0.799524 -0.0288234 -0.00760956 0 112 101
0.384267 0.0965749 0.00165157 0 112 101
0.56941 -0.130402 -0.00218724 0 112 101
0.768271 -0.0727182 -0.00624501 0 112 101
0.301465 0.268426 -0.00931073 0 112 101
0.653285 -0.225456 0.00814574 0 112 101
0.541814 -0.144841 -0.00611619 0 112 101
0.761276 0.0313047 0.00817291 0 112 101
0.30536 -0.106097 0.00645108 0 112 101
0.363171 -0.0421228 0.00301684 0 112 101
0.209798 0.190734 -0.0021366 0 112 101
0.412841 0.228306 -0.00226635 0 112 101
0.513385 -0.206687 -0.0017772 0 112 101
0.598025 -0.0886863 -0.00769076 0 112 101
0.747391 0.296586 0.00562322 0 112 101
0.21879 -0.139009 -0.00617619 0 112 101
0.208994 -0.229433 -0.00320045 0 112 101
0.602191 -0.276775 -0.00908698 0 112 101
0.34549 -0.190921 0.00963052 0 112 101
0.331217 0.0805625 -0.00995966 0 112 101
0.568405 -0.155117 0.000218112 0 112 101
0.67312 0.0650338 0.00885635 0 112 101
0.286778 -0.17257 -0.00959674 0 112 101
0.322975 0.264016 0.00817498 0 112 101
0.274779 -0.122124 0.0031249 0 112 101
0.744624 0.238726 0.0076126 0 112 101
0.548134 -0.117599 -0.00736559 0 112 101
0.361047 -0.222358 -0.00895882 0 112 101
0.714159 -0.0872211 -0.0055313 0 112 101
0.217181 0.277668 0.00999205 0 112 101
0.442316 -0.115495 0.00882602 0 112 101
0.572217 0.273672 -0.00297263 0 112 101
0.217988 -0.203873 -0.00263101 0 112 101
0.603536 0.178715 0.00223165 0 112 101
0.514321 -0.0375669 0.00869908 0 112 101
0.520087 0.214685 0.00345102 0 112 101
0.382948 0.0459921 -0.00765815 0 112 101
0.279441 -0.0317544 -0.00289685 0 112 101
0.412267 -0.0813397 0.00672062 0 112 101
0.508047 0.145371 0.000549611 0 112 101
0.75243 -0.138982 -0.00695738 0 112 101
0.603221 0.216931 0.00906249 0 112 101
0.339148 0.221601 0.00346185 0 112 101
0.265216 -0.235701 -0.00961151 0 112 101
0.571631 -0.0523731 -0.00876553 0 112 101
0.629935 -0.0165767 -0.00547008 0 112 101
0.427749 0.215442 0.00312362 0 112 101
0.202917 -0.20699 -0.00418078 0 112 101
0.485285 -0.207427 0.00448193 0 112 101
0.574917 0.0679305 0.0069482 0 112 101
0.204955 -0.217102 8.21122e-05 0 112 101
0.618938 0.268034 0.00506461 0 112 101
0.237877 -0.0557712 0.000419411 0 112 101
0.512048 -0.0977756 -0.00869874 0 112 101
0.493937 0.122843 7.20381e-06 0 112 101
0.31064 -0.0398719 0.00159629 0 112 101
0.714263 0.196664 0.00747702 0 112 101
0.717319 -0.252708 -0.00285292 0 112 101
0.643842 -0.218899 -0.00672102 0 112 101
0.278609 -0.247704 0.00144704 0 112 101
0.508106 -0.242323 -0.00222332 0 112 101
0.306106 0.195404 0.00834064 0 112 101
0.607051 -0.107459 -0.00353457 0 112 101
0.752234 0.238951 -0.00516286 0 112 101
0.687704 0.0800344 -0.00282823 0 112 101
0.624694 0.240594 0.00824859 0 112 101
0.340176 0.18567 0.00928811 0 112 101
0.728397 -0.269302 -0.00678873 0 112 101
0.363213 -0.0440521 0.00433579 0 112 101
0.447472 -0.228753 -0.00902631 0 112 101
0.543273 0.0781761 0.00901912 0 112 101
0.746253 0.21983 0.00570376 0 112 101
0.413494 0.175108 0.00774504 0 112 101
0.549006 -0.152582 0.00869637 0 112 101
0.416576 0.185909 0.00597708 0 112 101
0.781783 -0.217552 0.00471614 0 112 101
0.259169 -0.0651084 -0.00328347 0 112 101
0.578653 0.250473 0.00378679 0 112 101
0.718051 -0.253238 0.00588628 0 112 101
0.332664 -0.158188 -0.00329874 0 112 101
0.205468 -0.121219 -0.00237002 0 112 101
0.32245 -0.12826 -0.0076285 0 112 101
0.453488 0.0622791 0.00648066 0 112 101
0.378261 -0.283257 0.00580003 0 112 101
0.641381 -0.255143 -0.0050307 0 112 101
0.593862 0.128307 0.00354096 0 112 101
0.369988 0.0925169 -0.00143935 0 112 101
0.706499 -0.0754042 0.00747383 0 112 101
0.592097 -0.170737 -0.006945 0 112 101
0.475414 0.263494 -0.00252806 0 112 101
0.635859 0.25669 -0.00229339 0 112 101
0.478053 -0.176638 -0.0087421 0 112 101
0.7188 0.0514603 -0.00874769 0 112 101
0.429191 0.221688 -0.000421713 0 112 101
0.667926 -0.172344 0.0054441 0 112 101
0.329789 -0.0961544 -0.00755729 0 112 101
0.702522 0.0579546 -0.00729804 0 112 101
0.339799 -0.0914215 -0.00449091 0 112 101
0.252188 -0.184609 0.00368111 0 112 101
0.383274 0.107088 0.00999342 0 112 101
0.652253 0.271189 0.00205657 0 112 101
0.445318 0.165162 -0.00574905 0 112 101
0.243649 -0.269055 0.00641805 0 112 101
0.409909 0.179673 -0.00940188 0 112 101
0.493836 0.0218537 0.00953708 0 112 101
0.626415 -0.193019 0.00290387 0 112 101
0.791331 0.0623026 0.0065575 0 112 101
0.587736 -0.234284 -0.000188905 0 112 101
0.287549 0.27368 0.00937427 0 112 101
0.606425 0.233557 0.00938576 0 112 101
0.359367 -0.160791 0.00555328 0 112 101
0.679764 -0.230146 -0.00221015 0 112 101
0.71065 0.193006 0.00994086 0 112 101
0.613745 -0.134851 0.00161814 0 112 101
0.43788 0.211764 -0.00483998 0 112 101
0.68011 0.0827822 0.00139404 0 112 101
0.501541 -0.296945 0.000549544 0 112 101
0.524153 -0.0262751 0.00957738 0 112 101
0.708536 -0.0966572 0.00908804 0 112 101
0.47699 -0.241638 -0.00663758 0 112 101
0.543822 -0.28257 -0.00113811 0 112 101
0.554156 0.20787 -0.00944623 0 112 101
0.46581 -0.168053 0.00190853 0 112 101
0.695733 0.0958186 -0.00273668 0 112 101
0.389555 -0.269425 0.00243386 0 112 101
0.67969 0.0572748 -0.00386402 0 112 101
0.44169 -0.166011 -0.00241353 0 112 101
0.79716 -0.0994056 -0.00196965 0 112 101
0.509748 -0.0166471 0.00696041 0 112 101
0.661662 -0.022504 0.00198593 0 112 101
0.766623 0.00033661 -0.00118884 0 112 101
0.321885 0.27536 -0.00838176 0 112 101
0.779614 0.0517594 -3.67593e-05 0 112 101
0.263153 0.120424 0.00770545 0 112 101
0.717797 0.103865 0.00451476 0 112 101
0.559944 -0.242859 -0.00655456 0 112 101
0.471317 -0.297437 0.00358618 0 112 101
0.727804 -0.13155 0.00668203 0 112 101
0.683348 -0.118002 -0.00445462 0 112 101
0.2854 -0.277563 -0.00667421 0 112 101
0.348763 -0.0889975 -0.00578689 0 112 101
0.700349 -0.200045 -0.0096191 0 112 101
0.236674 0.226349 -0.0038528 0 112 101
0.688102 0.157188 -0.00876195 0 112 101
0.464999 -0.0595048 0.00132915 0 112 101
0.526359 0.117179 -0.00878534 0 112 101
0.724389 -0.0849483 0.00470584 0 112 101
0.50389 0.276149 0.00171099 0 112 101
0.34587 -0.21536 -0.000246279 0 112 101
0.561386 -0.110138 0.000599757 0 112 101
0.790913 0.132116 -0.00288507 0 112 101
0.240522 0.0831641 0.0024051 0 112 101
0.459802 -0.277292 -0.00111128 0 112 101
0.706037 0.000395178 -0.00667482 0 112 101
0.307985 0.0793066 -0.0076715 0 112 101
0.709551 0.201391 0.00927211 0 112 101
0.787493 0.102158 0.00200793 0 112 101
0.533139 -0.141774 -0.0084983 0 112 101
0.522475 0.0575346 0.001571 0 112 101
0.27101 0.000429809 -0.00273598 0 112 101
0.446794 -0.108327 0.00376997 0 112 101
0.701652 -0.168076 -0.00677507 0 112 101
0.332294 -0.0680947 -0.00213936 0 112 101
0.500751 -0.190653 0.000250735 0 112 101
0.21447 0.0886688 -0.00252978 0 112 101
0.243041 -0.0929505 0.00939302 0 112 101
0.355727 -0.102762 0.00154878 0 112 101
0.628879 -0.205203 -0.0033998 0 112 101
0.685618 -0.289909 -0.00492885 0 112 101
0.788845 -0.0988049 -0.00438021 0 112 101
0.778004 -0.0321086 0.0019654 0 112 101
0.778625 0.269909 -0.00887228 0 112 101
0.715017 0.0193741 0.000496987 0 112 101
0.648011 -0.0960612 0.00881739 0 112 101
0.652657 0.151987 -0.00437224 0 112 101
0.677263 -0.178288 -0.00694322 0 112 101
0.594096 -0.205695 -0.00886257 0 112 101
0.373329 -0.105372 0.000607588 0 112 101
0.397184 0.0913553 -0.00690536 0 112 101
0.582189 -0.100388 0.00226165 0 112 101
0.744673 -0.269129 0.00944637 0 112 101
0.535133 -0.2374 0.00140601 0 112 101
0.54553 -0.16949 0.00141402 0 112 101
0.585578 0.17606 -0.00520978 0 112 101
0.242392 -0.113869 0.00450602 0 112 101
0.629919 0.068115 -0.000882146 0 112 101
0.301682 0.17257 0.005581 0 112 101
0.502648 -0.026094 0.00495425 0 112 101
0.365866 -0.15255 -0.00099718 0 112 101
0.665572 0.278157 -0.00547601 0 112 101
0.536878 -0.149512 0.00437929 0 112 101
0.701327 0.117921 -0.00773248 0 112 101
0.543192 -0.0842178 0.00459639 0 112 101
0.658323 -0.0845276 -0.000348542 0 112 101
0.579443 -0.200636 0.00708491 0 112 101
0.223397 -0.071524 0.00807202 0 112 101
0.418206 -0.0711492 0.00726201 0 112 101
0.419531 -0.119209 -0.00297718 0 112 101
0.331439 -0.266575 -0.00546678 0 112 101
0.33952 -0.0920676 0.00482998 0 112 101
0.35496 -0.176644 0.00479989 0 112 101
0.373771 -0.11042 -0.00339247 0 112 101
0.367532 0.109811 -0.000677796 0 112 101
0.744926 0.200674 -0.0060986 0 112 101
0.362376 0.251737 0.00892411 0 112 101
0.665791 -0.0925814 -0.000843472 0 112 101
0.238098 0.261637 -0.00987726 0 112 101
0.354582 -0.158689 -0.000851203 0 112 101
0.237081 -0.283183 0.00440336 0 112 101
0.776159 0.15607 0.00617256 0 112 101
0.315453 0.283063 0.00533762 0 112 101
0.404344 -0.0475572 0.00147395 0 112 101
0.792823 0.024572 -0.000224471 0 112 101
0.524992 -0.0224663 -0.00362305 0 112 101
0.563077 0.036372 0.00829334 0 112 101
0.655622 -0.157668 0.00666557 0 112 101
0.267783 -0.239799 -0.000302681 0 112 101
0.231321 0.154448 0.00285766 0 112 101
0.439586 0.297478 0.00561743 0 112 101
0.230653 -0.103408 -0.00365286 0 112 101
0.725362 0.0660683 -0.00553316 0 112 101
0.289851 -0.0588068 0.00292558 0 112 101
0.656862 -0.0323494 0.00673019 0 112 101
0.215519 0.09243 -0.00558048 0 112 101
0.707215 -0.243882 -7.79249e-05 0 112 101
0.717352 0.0680956 -0.00169476 0 112 101
0.571515 0.173935 -0.00854926 0 112 101
0.57653 -0.214979 0.00358897 0 112 101
0.593859 0.0908012 0.00278445 0 112 101
0.25254 0.174636 -0.00781116 0 112 101
0.34048 0.129012 0.00482362 0 112 101
0.372392 -0.185929 0.00244309 0 112 101
0.485321 0.00275127 -0.00107245 0 112 101
0.37378 -0.141895 0.00773585 0 112 101
0.711268 0.0360961 -0.006107 0 112 101
0.621802 -0.14181 -0.00666721 0 112 101
0.699584 -0.21795 -0.00325964 0 112 101
0.287436 -0.268813 0.0068141 0 112 101
0.692672 0.211256 0.00436443 0 112 101
0.376303 -0.149702 0.000401618 0 112 101
0.221382 -0.198554 -0.0042308 0 112 101
0.727133 -0.114126 0.00751842 0 112 101
0.208373 -0.118539 -0.00718787 0 112 101
0.505958 -0.0358639 -0.00266808 0 112 101
0.586773 0.107028 0.00623108 0 112 101
0.774352 0.156352 -0.00780935 0 112 101
0.496961 0.105061 0.00954039 0 112 101
0.27751 -0.235006 0.00580171 0 112 101
0.278745 -0.231653 -0.00575984 0 112 101
0.314598 -0.209201 0.00725613 0 112 101
0.27159 0.0205369 0.000870227 0 112 101
0.395249 0.202118 0.00851646 0 112 101
0.728373 -0.0765023 -0.00964066 0 112 101
0.474158 0.0722455 0.00494465 0 112 101
0.572385 0.134523 0.00479789 0 112 101
0.266629 -0.134565 -0.00228149 0 112 101
0.433497 -0.166855 0.00836757 0 112 101
0.696969 -0.186319 -0.0093297 0 112 101
0.360139 -0.124862 0.00663817 0 112 101
0.697915 -0.0235537 0.000647571 0 112 101
0.402217 -0.116388 0.00229227 0 112 101
0.552713 0.101553 -0.00313428 0 112 101
0.268116 -0.118855 -0.00999325 0 112 101
0.709386 0.0251481 -0.00821192 0 112 101
0.400594 0.0560878 -0.00358933 0 112 101
0.210556 -0.27247 0.00878764 0 112 101
0.528628 0.0246465 -0.00875552 0 112 101
0.266943 -0.20508 -0.00104317 0 112 101
0.39513 -0.272854 -0.00343068 0 112 101
0.750797 -0.123261 -0.00582043 0 112 101
0.201911 -0.187386 0.00286877 0 112 101
0.501497 -0.122358 0.00110995 0 112 101
0.741402 -0.0323074 0.00433823 0 112 101
0.256737 -0.100321 -0.00160846 0 112 101
0.203497 -0.196529 0.00324034 0 112 101
0.515888 0.110683 -0.00679257 0 112 101
0.371704 -0.22975 0.00773725 0 112 101
0.740034 -0.261539 -0.00994491 0 112 101
0.695096 -0.0222663 -0.000894675 0 112 101
0.21306 0.0247744 -0.00560689 0 112 101
0.586607 -0.036997 0.00432364 0 112 101
0.610849 0.273807 -0.00277392 0 112 101
0.340458 -0.0637529 -0.00271795 0 112 101
0.268452 0.0583877 -0.00503091 0 112 101
0.285236 -0.00170239 -0.00855444 0 112 101
0.348693 0.113662 0.00551218 0 112 101
0.755508 -0.13417 -0.00851789 0 112 101
0.32768 0.246637 0.00852097 0 112 101
0.74294 0.178803 -0.0045204 0 112 101
0.378384 -0.00106559 -0.00927742 0 112 101
0.266907 0.274343 -0.00598622 0 112 101
0.601287 -0.201685 0.00344263 0 112 101
0.51046 -0.138878 0.000931589 0 112 101
0.576629 -0.213659 0.00596863 0 112 101
0.763999 -0.167611 0.00942185 0 112 101
0.596247 -0.224086 -0.00738453 0 112 101
0.37496 0.126749 -0.000236642 0 112 101
0.27154 -0.0375365 -4.55595e-05 0 112 101
0.561163 0.268736 -0.00403473 0 112 101
0.385462 0.0659935 0.00154061 0 112 101
0.601458 0.0998617 -0.000321766 0 112 101
0.322433 -0.285403 -0.00437269 0 112 101
0.370026 -0.270809 0.00163897 0 112 101
0.2171 0.150162 -0.00964158 0 112 101
0.541237 0.207974 -0.00974704 0 112 101
0.763312 -0.162137 -0.000868165 0 112 101
0.403307 0.0809436 0.0099916 0 112 101
0.573676 -0.111146 0.0062542 0 112 101
0.568334 -0.152494 -0.00448047 0 112 101
0.481909 -0.14523 -0.00986401 0 112 101
0.416244 0.256527 -0.00442631 0 112 101
0.737799 0.250929 -0.00466089 0 112 101
0.293191 0.042527 0.00788734 0 112 101
0.71092 -0.258434 -0.00566917 0 112 101
0.441391 -0.238575 -0.00751482 0 112 101
0.574412 -0.118657 0.00382482 0 112 101
0.235117 0.0292576 0.00123066 0 112 101
0.594596 -0.181779 -0.00588179 0 112 101
0.495203 -0.0362568 0.00855287 0 112 101
0.578763 0.0826524 0.00309709 0 112 101
0.283782 0.0713098 0.00762645 0 112 101
0.67292 0.018572 0.00111642 0 112 101
0.339421 -0.237821 0.00392548 0 112 101
0.6201 -0.139911 -0.00517147 0 112 101
0.69007 0.21273 0.009722 0 112 101
0.532518 -0.208018 0.00283168 0 112 101
0.261922 -0.111757 -0.00399931 0 112 101
0.285439 0.0591927 -0.0095929 0 112 101
0.301317 0.141905 0.00389396 0 112 101
0.567054 0.0600581 -0.00822191 0 112 101
0.558231 -0.0312894 0.00313942 0 112 101
0.6595 0.011115 -0.00916452 0 112 101
0.789813 -0.228435 -0.00843588 0 112 101
0.642308 0.217751 -0.00917028 0 112 101
0.457075 -0.213121 0.00318121 0 112 101
0.674904 0.197426 -0.00917167 0 112 101
0.772748 -0.252956 -0.00273235 0 112 101
0.758757 0.107339 -0.00104711 0 112 101
0.658152 0.158657 -0.00312533 0 112 101
0.382946 0.11565 -0.0084153 0 112 101
0.747169 -0.0118126 0.000826693 0 112 101
0.410155 -0.0854915 0.00874969 0 112 101
0.655983 -0.155752 -0.00677482 0 112 101
0.718205 -0.148234 0.00623457 0 112 101
0.796744 0.050032 -0.00134191 0 112 101
0.615025 -0.0602794 0.00409956 0 112 101
0.275674 0.180677 0.00429461 0 112 101
0.648681 0.0209478 -0.00201935 0 112 101
0.733097 -0.138275 -0.00374978 0 112 101
0.510009 0.13152 -0.00868651 0 112 101
0.359696 0.118263 0.0010699 0 112 101
0.533063 0.112525 -0.00550236 0 112 101
0.59189 -0.219267 -0.00809633 0 112 101
0.777976 -0.217346 -0.00554379 0 112 101
0.668027 0.0269194 0.00941789 0 112 101
0.630575 -0.0769586 -0.00863821 0 112 101
0.312403 0.157484 -0.00256775 0 112 101
0.447985 -0.247602 -0.00927191 0 112 101
0.747299 -0.183516 0.00288092 0 112 101
0.648531 -0.0919064 0.00909208 0 112 101
0.690716 0.235313 -0.00400406 0 112 101
0.77967 0.0514138 -0.00627257 0 112 101
0.444747 -0.0905971 -0.00538813 0 112 101
0.359191 -0.0413731 -0.00144124 0 112 101
0.2647 0.0666264 0.00769591 0 112 101
0.518639 0.29241 -0.00183192 0 112 101
0.237493 0.254351 -0.00359153 0 112 101
0.43233 -0.00871188 0.00450093 0 112 101
0.281323 0.167146 0.00777851 0 112 101
0.504781 -0.103475 -0.000785853 0 112 101
0.372894 -0.0452533 0.00192187 0 112 101
0.783131 0.169914 -0.00995143 0 112 101
0.298614 -0.171703 0.00241383 0 112 101
0.25996 -0.135662 -0.00243118 0 112 101
0.406056 0.0517606 0.00334549 0 112 101
0.559459 -0.0481184 0.000398831 0 112 101
0.290674 -0.099229 -0.000531993 0 112 101
0.64572 -0.0246061 0.00825874 0 112 101
0.67784 0.276387 0.000801533 0 112 101
0.255404 0.218243 0.00789706 0 112 101
0.724895 0.0909649 0.00494775 0 112 101
0.519513 -0.232456 -0.00577521 0 112 101
0.710236 0.135276 0.00929592 0 112 101
0.602447 -0.232099 -0.0049861 0 112 101
0.564721 0.206135 0.00670722 0 112 101
0.661437 0.0877347 0.00946305 0 112 101
0.684952 -0.115104 -0.000807337 0 112 101
0.35323 0.0481365 -0.00343978 0 112 101
0.312563 -0.102571 -0.00116817 0 112 101
0.548488 0.0928122 0.00991547 0 112 101
0.692987 0.030168 0.00506481 0 112 101
0.635269 0.144843 -0.0089953 0 112 101
0.446923 0.263611 -0.0062974 0 112 101
0.365167 0.0636988 0.00543617 0 112 101
0.692502 -0.135693 -0.00905889 0 112 101
0.609995 -0.265736 -0.00603552 0 112 101
0.455173 -0.18556 0.00116455 0 112 101
0.695859 -0.135454 0.00551164 0 112 101
0.287755 0.0397122 0.0077722 0 112 101
0.466537 0.00599676 0.00758377 0 112 101
0.299907 -0.143836 0.00601395 0 112 101
0.586975 -0.0636337 -0.00403555 0 112 101
0.605635 -0.0381247 0.00779158 0 112 101
0.5109 -0.0698063 0.00318154 0 112 101
0.77905 -0.123725 -0.0015724 0 112 101
0.591158 0.144234 -0.00278144 0 112 101
0.281189 -0.169671 -0.00680249 0 112 101
0.329935 -0.127161 0.00636572 0 112 101
0.388469 -0.289108 0.00549159 0 112 101
0.283995 -0.0256182 0.00344206 0 112 101
0.274912 -0.151519 0.0030029 0 112 101
0.324188 0.195797 -0.00186254 0 112 101
0.545496 -0.0372879 0.00127579 0 112 101
0.313924 -0.0232463 0.00236447 0 112 101
0.236267 0.235626 0.00285067 0 112 101
0.291432 0.0210274 0.00820236 0 112 101
0.234441 0.0486598 -0.0087105 0 112 101
0.688886 0.256394 0.00145333 0 112 101
0.66186 0.212667 -0.000976251 0 112 101
0.613879 -0.00978188 -0.007279 0 112 101
0.432821 -0.264274 0.00514387 0 112 101
0.268639 -0.180757 -0.00383931 0 112 101
0.203633 -0.00966359 -0.00663734 0 112 101
0.381415 -0.287819 -0.00209342 0 112 101
0.415914 -0.167293 -0.00297138 0 112 101
0.26876 -0.0881004 -0.00470144 0 112 101
0.483852 0.0145931 -0.00239827 0 112 101
0.72944 -0.258187 0.00468376 0 112 101
0.218836 0.0121523 0.00529722 0 112 101
0.370905 0.251136 0.00532844 0 112 101
0.379605 -0.248144 0.0054086 0 112 101
0.600054 -0.14084 -0.00198155 0 112 101
0.324989 -0.0784892 0.00777238 0 112 101
0.693641 0.10016 -0.00633581 0 112 101
0.470322 -0.0928112 -0.0071207 0 112 101
0.321062 0.136169 -0.00457873 0 112 101
0.443724 -0.155396 0.00674577 0 112 101
0.614054 0.0698144 -0.00533452 0 112 101
0.495993 -0.182274 -0.00678061 0 112 101
0.663701 0.0853912 -0.0027606 0 112 101
0.655494 0.240016 -0.00351697 0 112 101
0.592565 -0.168796 -0.00945291 0 112 101
0.515748 0.0579227 0.00256562 0 112 101
0.583445 0.139902 0.00239432 0 112 101
0.238503 0.181527 -0.00525237 0 112 101
0.69418 -0.0344553 0.00652314 0 112 101
0.482084 -0.0322009 -0.00432505 0 112 101
0.401591 0.0917652 -0.00312994 0 112 101
0.785019 -0.1624 0.00716167 0 112 101
0.226093 -0.251274 0.00252335 0 112 101
0.627601 -0.208583 0.0058962 0 112 101
0.445804 -0.283503 0.00293868 0 112 101
0.293849 -0.0444583 0.00816948 0 112 101
0.44317 -0.247893 0.000917638 0 112 101
0.716864 0.02551 0.00667738 0 112 101
0.394046 0.0951315 -0.00320756 0 112 101
0.341451 -0.290856 0.000417646 0 112 101
0.462947 0.282904 0.00649553 0 112 101
0.743005 0.131035 0.000799222 0 112 101
0.754181 -0.224038 -0.00386333 0 112 101
0.424178 -0.137338 -0.00944424 0 112 101
0.68481 -0.126715 -0.00634719 0 112 101
0.775472 -0.175701 0.00803169 0 112 101
0.795486 0.227608 0.00173774 0 112 101
0.508877 0.194282 0.00544736 0 112 101
0.572282 -0.098973 0.00551286 0 112 101
0.687524 -0.228659 0.00568152 0 112 101
0.560045 0.0168626 0.00360944 0 112 101
0.588626 -0.289704 0.00566772 0 112 101
0.210274 -0.0985906 -0.00349561 0 112 101
0.315067 -0.0759637 0.00461389 0 112 101
0.770474 -0.0147356 0.00344629 0 112 101
0.328547 -0.284459 -0.00436095 0 112 101
0.255001 0.236272 -0.00940536 0 112 101
0.588737 0.235359 -0.0083251 0 112 101
0.683435 -0.0369752 0.0095414 0 112 101
0.378318 -0.102096 -0.000569825 0 112 101
0.375849 0.258679 -3.00352e-05 0 112 101
0.404454 0.109647 0.00116059 0 112 101
0.35867 -0.106704 -0.00861415 0 112 101
0.254191 0.0161911 0.00164373 0 112 101
0.737478 0.122615 0.0044026 0 112 101
0.675082 -0.216893 -0.00299331 0 112 101
0.373162 -0.294854 0.000334005 0 112 101
0.241331 -0.297908 0.0019104 0 112 101
0.798333 -0.174886 -0.0040921 0 112 101
0.772082 -0.121979 -0.00223792 0 112 101
0.428316 -0.270623 0.00704589 0 112 101
0.25701 0.179611 0.00166216 0 112 101
0.686841 -0.257136 -0.00111552 0 112 101
0.548263 0.0268558 -0.00591709 0 112 101
0.602494 -0.140256 0.00470969 0 112 101
0.558714 0.036942 -0.0072648 0 112 101
0.661805 -0.279881 0.00143219 0 112 101
0.319057 0.00927811 -0.00492939 0 112 101
0.292215 0.0662112 0.00444025 0 112 101
0.774524 0.157125 -0.00390452 0 112 101
0.535256 -0.297505 -0.00247954 0 112 101
0.345883 -0.218088 -0.00503139 0 112 101
0.326349 0.132499 0.00522912 0 112 101
0.659096 -0.296229 -0.00689873 0 112 101
0.387564 0.259216 0.00152836 0 112 101
0.742978 -0.111003 -0.00668475 0 112 101
0.272281 0.145205 -0.00208131 0 112 101
0.779781 -0.149311 0.00648405 0 112 101
0.597769 0.246688 -0.0076649 0 112 101
0.449915 0.0762174 -0.00844607 0 112 101
0.378073 -0.153677 -0.00202673 0 112 101
0.626681 0.241683 0.000759645 0 112 101
0.691386 -0.0099626 0.00817812 0 112 101
0.692709 -0.196958 -0.00131184 0 112 101
0.719335 0.0706121 0.00285075 0 112 101
0.488833 0.0015892 0.00968187 0 112 101
0.342266 0.246341 0.000516221 0 112 101
0.468143 -0.11838 0.00067573 0 112 101
