ply
format ascii 1.0
comment Created by Open3D
element vertex 1192
property double x
property double y
property double z
property uchar red
property uchar green
property uchar blue
end_header
0.741214 0.0047904 0.0104334 222 198 163
0.746151 0.00665296 0.0132074 228 203 172
0.733721 0.00610525 0.00591672 221 203 169
0.700795 0.0480795 0.0310551 206 165 91
0.660434 0.0604988 0.0219162 201 184 146
0.711403 0.0397272 0.0265255 221 185 144
0.666326 0.0587161 0.0215223 205 188 150
0.655676 0.0640662 0.0212289 207 190 150
0.642942 0.0706135 0.0210323 205 191 152
0.637844 0.0735414 0.0212695 207 192 157
0.62802 0.0768835 0.0193598 208 197 160
0.755614 0.00443903 0.0125075 229 204 173
0.716211 0.0347213 0.0222497 227 206 167
0.70754 0.0442919 0.0273985 234 192 144
0.682764 0.0516374 0.0214328 207 186 144
0.676245 0.0546168 0.0209452 206 192 150
0.648883 0.0688023 0.0206362 209 192 152
0.741082 0.00981141 0.00830207 223 199 174
0.690865 0.0508656 0.0233251 209 188 136
0.62448 0.0790737 0.0161051 125 121 98
0.697444 0.0501923 0.0245093 215 186 121
0.671834 0.0588115 0.0193411 215 191 153
0.633262 0.0794431 0.0195455 208 193 160
0.752329 0.0111296 0.012301 228 206 176
0.722799 0.030369 0.0160656 231 210 174
0.712922 0.0405992 0.0213068 230 198 156
0.702739 0.0479672 0.0233745 231 193 147
0.65444 0.0688733 0.0184486 211 194 154
0.739404 0.0193898 0.0119916 221 190 154
0.764224 0.00899285 0.0131302 252 246 193
0.74483 0.0171092 0.0108284 218 196 163
0.729192 0.0276029 0.0131579 240 216 178
0.688289 0.0541198 0.0182646 213 193 147
0.661673 0.0671396 0.0170998 213 196 158
0.644944 0.0759925 0.017077 215 200 165
0.736625 0.0241664 0.0119055 229 205 170
0.718793 0.0374238 0.015947 240 206 169
0.760094 0.013775 0.0123221 245 220 175
0.750147 0.0172318 0.0103697 220 193 153
0.710599 0.0459637 0.0186496 232 193 151
0.698223 0.0523202 0.0184204 217 193 153
0.681449 0.0589464 0.0159806 209 188 149
0.653719 0.0726175 0.0148555 216 198 167
0.63856 0.0828282 0.0171707 211 200 166
0.674716 0.0636405 0.0153932 214 197 159
0.755703 0.0179511 0.0107251 214 192 147
0.746328 0.0225874 0.0103522 231 207 172
0.726809 0.0352954 0.0128783 233 201 159
0.706257 0.050093 0.0170705 230 194 150
0.693449 0.0559531 0.0160483 218 193 145
0.668992 0.0677554 0.0147589 218 200 166
0.767138 0.0151959 0.0125368 241 231 185
0.717546 0.044427 0.0156549 232 193 154
0.649151 0.0799781 0.0147812 210 195 160
0.743554 0.0273278 0.0103021 224 197 160
0.737518 0.0307948 0.0105829 237 206 173
0.689519 0.0605976 0.015255 215 191 153
0.645021 0.0854114 0.016512 212 201 167
0.751212 0.0244972 0.00986239 243 216 179
0.733476 0.0354268 0.0115025 244 210 178
0.661901 0.0743091 0.0123869 216 198 164
0.638334 0.090074 0.0159285 207 192 159
0.761652 0.0222882 0.0117486 240 234 181
0.724846 0.043428 0.0134607 227 198 154
0.714662 0.0507596 0.0155687 234 202 160
0.702962 0.0559976 0.0144788 222 193 149
0.685057 0.0662819 0.0153117 220 199 160
0.679088 0.06971 0.0155894 223 202 166
0.655175 0.0804814 0.0134334 215 200 167
0.67297 0.0733008 0.0141663 220 202 168
0.769028 0.0218949 0.0120918 237 227 184
0.751245 0.0321091 0.0129191 239 212 175
0.742353 0.0372163 0.0133327 239 212 175
0.734135 0.0434111 0.0153573 229 193 152
0.721242 0.0486046 0.0134936 235 208 171
0.710532 0.056968 0.0164553 234 200 165
0.698051 0.0611875 0.0137513 219 192 152
0.667826 0.0763362 0.012694 215 200 165
0.652872 0.0863996 0.0150319 208 193 160
0.648496 0.091125 0.0176989 213 198 165
0.759744 0.0287729 0.0124643 239 201 168
0.661153 0.0809883 0.0121118 213 202 168
0.64343 0.0955803 0.0178752 218 208 179
0.748841 0.037311 0.0137414 240 213 176
0.692308 0.0653803 0.0114203 211 190 154
0.68845 0.0727314 0.0173759 225 210 177
0.682577 0.0761051 0.0176492 214 193 154
0.666747 0.0823413 0.0133752 220 205 170
0.659816 0.0863226 0.0136976 213 202 165
0.655944 0.0914736 0.0171865 212 198 159
0.762074 0.0335097 0.0138605 250 229 187
0.706883 0.0622902 0.0131112 222 191 152
0.680686 0.0809864 0.0184759 211 189 144
0.675377 0.0818465 0.0162353 215 201 162
0.652493 0.0971797 0.0197874 204 193 156
0.771158 0.0290912 0.0125676 205 199 162
0.73672 0.0481436 0.0133384 235 208 171
0.730803 0.0493579 0.01112 236 204 162
0.721223 0.0534046 0.00990326 234 203 167
0.715026 0.06206 0.01601 233 199 164
0.698499 0.0664561 0.0109603 221 200 164
0.664924 0.0886532 0.0158471 218 203 168
0.75937 0.0381134 0.013912 245 211 174
0.750338 0.0425752 0.013499 227 195 153
0.742239 0.0465006 0.0130425 233 202 166
0.693197 0.0724905 0.0128242 225 207 173
0.693323 0.0775018 0.018651 226 209 171
0.671106 0.0873577 0.0163515 213 192 153
0.661919 0.094813 0.0192786 215 193 160
0.68869 0.0838518 0.0213451 213 192 150
0.681526 0.0872423 0.0208431 211 190 148
0.667568 0.0930864 0.0189867 212 197 162
0.708763 0.0673271 0.012859 227 196 160
0.69508 0.0701287 0.00763468 227 205 172
0.676093 0.0925939 0.0219141 215 198 160
0.660745 0.0999646 0.0209535 211 190 154
0.70323 0.071304 0.0122459 224 203 167
0.771801 0.0355935 0.0115509 208 205 173
0.757897 0.0450168 0.0138802 234 202 160
0.739926 0.0517452 0.0105098 230 199 163
0.716965 0.0692462 0.0166257 228 197 158
0.671027 0.0985065 0.0221278 206 189 149
0.666279 0.101234 0.0223487 208 194 152
0.723764 0.0560899 0.00364681 230 199 163
0.698007 0.0823549 0.0183379 223 206 168
0.689799 0.0906544 0.0229362 217 196 160
0.750881 0.0484777 0.00995405 230 192 159
0.683975 0.0954877 0.0232103 203 182 130
0.769659 0.041339 0.0116055 230 213 170
0.712486 0.0713242 0.0108758 229 198 162
0.696064 0.0886025 0.0209604 230 205 174
0.677243 0.100839 0.0235306 207 187 141
0.76572 0.0458106 0.0126311 252 246 196
0.745728 0.0508909 0.00591702 234 200 165
0.707557 0.0742378 0.00939139 230 206 168
0.704655 0.0808843 0.0154718 229 208 172
0.670039 0.105746 0.0230276 222 201 162
0.756874 0.0503334 0.00877799 251 231 185
0.724517 0.0731647 0.0154035 231 204 169
0.717674 0.0749716 0.0131617 230 206 171
0.70306 0.087612 0.0189618 222 207 172
0.69545 0.0948132 0.0227293 223 202 163
0.726435 0.0686048 0.00933568 239 212 175
0.709449 0.0791494 0.00926757 226 202 167
0.690923 0.0996458 0.0221331 216 194 149
0.684418 0.103382 0.0224357 213 199 157
0.762767 0.0521213 0.0093666 251 238 189
0.753065 0.0527788 0.00380198 239 208 172
0.7209 0.0796792 0.0156113 234 203 167
0.711088 0.084613 0.0152084 228 204 169
0.704233 0.092763 0.0206838 223 202 166
0.677283 0.108242 0.0219375 213 198 163
0.769583 0.0510881 0.0107836 212 211 174
0.70918 0.0906842 0.0196236 228 207 171
0.728886 0.0745401 0.0109691 239 212 175
0.727888 0.0786053 0.0153328 235 208 171
0.701502 0.0979513 0.021741 204 180 140
0.690274 0.105854 0.0223047 219 201 167
0.718048 0.0871824 0.0158533 230 206 168
0.697464 0.103174 0.0220157 221 197 157
0.684129 0.110138 0.0217686 218 200 166
0.766625 0.0572736 0.00928338 215 208 167
0.715203 0.0937381 0.0203705 226 202 167
0.709199 0.097879 0.0215192 211 182 138
0.728524 0.0854576 0.0171877 236 205 172
0.705349 0.101533 0.0217518 213 192 150
0.695602 0.109259 0.0231364 221 204 176
0.731572 0.0810964 0.0101446 234 203 170
0.721347 0.0952171 0.0211267 219 192 152
0.689968 0.112553 0.0217109 185 164 125
0.680521 0.115299 0.0169486 114 113 89
0.729582 0.0926619 0.0199993 228 201 166
0.714997 0.102406 0.0224369 219 194 146
0.706442 0.106637 0.0219553 222 201 165
0.701754 0.110753 0.022247 221 199 166
0.723088 0.101279 0.0230995 217 195 150
0.739495 0.0925897 0.0215363 237 203 166
0.696923 0.115008 0.0208599 154 144 104
0.728913 0.100755 0.023004 224 197 157
0.69129 0.116954 0.0176531 104 103 79
0.715835 0.108997 0.0228165 207 190 152
0.736981 0.0982552 0.0219287 216 189 154
0.70856 0.113234 0.0214675 183 166 123
0.723449 0.107427 0.022658 206 185 146
0.702144 0.11564 0.0182871 137 130 99
0.750842 0.0918135 0.0180046 194 186 149
0.744635 0.0975036 0.0176034 188 182 145
0.721046 0.111715 0.0196025 164 151 122
0.715307 0.114349 0.0189677 133 130 104
0.739948 0.101586 0.0179314 178 177 137
0.733142 0.106222 0.0174562 163 160 128
0.616772 -0.00808281 0.346614 231 195 133
0.613773 -0.0144764 0.345278 45 41 18
0.617366 -0.0159681 0.340704 94 93 34
0.624164 -0.00750608 0.339662 250 223 123
0.621073 -0.0122868 0.337945 132 128 68
0.629474 -0.00658555 0.335011 191 184 83
0.685698 0.0273796 0.34272 129 126 59
0.637767 -0.00210206 0.331364 194 187 86
0.644479 0.00515418 0.329594 252 239 132
0.687868 0.0257223 0.336322 134 123 61
0.642629 0.000381222 0.32821 182 181 84
0.651438 0.0056301 0.324567 205 188 87
0.685397 0.0245811 0.330194 111 110 45
0.661052 0.0197441 0.32298 251 238 189
0.658428 0.0089453 0.319863 166 165 88
0.691494 0.0252598 0.326159 153 135 47
0.669232 0.0263864 0.317776 248 240 186
0.684003 0.0276901 0.321176 124 117 57
0.663928 0.0150873 0.316982 207 196 99
0.676826 0.0277146 0.315819 200 158 108
0.669392 0.0200704 0.313356 199 193 101
0.692287 0.0257634 0.319461 176 163 74
0.683199 0.0273955 0.313963 171 147 70
0.676438 0.0228801 0.309817 198 188 101
0.688936 0.0262521 0.312182 142 121 47
0.695722 0.0249137 0.313915 220 210 126
0.682889 0.0243367 0.30752 185 181 81
0.689281 0.0252123 0.30645 130 123 63
0.697176 0.0255278 0.308197 250 225 137
0.690146 0.0231974 0.301106 124 123 61
0.695566 0.0265332 0.3011 238 209 122
0.696086 0.0271596 0.294756 246 214 128
0.690606 0.0236015 0.291547 146 136 68
0.695001 0.026489 0.289132 232 210 120
0.688462 0.0233766 0.28415 126 118 67
0.69672 0.0280894 0.283817 252 231 134
0.693417 0.0252048 0.2789 190 180 96
0.689565 0.0225825 0.274707 132 121 65
0.695797 0.0275555 0.273436 239 224 135
0.687099 0.0233449 0.265169 125 124 65
0.693613 0.0249234 0.267579 191 184 101
0.69624 0.0289368 0.261428 251 240 140
0.690581 0.0243303 0.259252 147 140 83
0.46035 -0.0971666 0.190279 251 244 219
0.687846 0.021808 0.254016 126 120 67
0.704245 0.0389068 0.255518 233 222 163
0.694625 0.0257163 0.254609 223 202 128
0.459291 -0.101827 0.186624 249 213 194
0.465657 -0.0959123 0.185855 248 192 174
0.468914 -0.0913369 0.185708 242 176 158
0.47217 -0.0867616 0.185562 215 165 148
0.480942 -0.0774621 0.184688 240 234 219
0.691932 0.0231847 0.249325 157 147 79
0.456498 -0.110496 0.181986 249 236 207
0.462977 -0.102862 0.182265 249 214 189
0.470219 -0.0942399 0.180891 249 183 165
0.688299 0.0230693 0.245042 128 121 64
0.453076 -0.116954 0.179464 251 248 219
0.467674 -0.0993689 0.179958 249 197 175
0.47371 -0.0850361 0.177385 208 159 135
0.48858 -0.0743839 0.180743 251 240 223
0.696625 0.0262682 0.246745 252 220 137
0.471146 -0.0902029 0.176444 238 172 154
0.70432 0.0388307 0.244455 187 173 118
0.463459 -0.106941 0.177472 251 226 198
0.477816 -0.079482 0.17393 188 126 101
0.500625 -0.0503489 0.174061 252 237 224
0.451068 -0.127361 0.17756 251 248 219
0.459329 -0.112845 0.176026 247 239 205
0.469837 -0.086445 0.170905 218 161 137
0.503279 -0.0452752 0.171724 242 194 183
0.691911 0.0248614 0.241102 177 169 90
0.455092 -0.12181 0.175748 252 246 211
0.468235 -0.101891 0.174573 247 208 181
0.468721 -0.0924989 0.171053 248 184 161
0.470151 -0.0817793 0.167491 198 143 115
0.474954 -0.0780741 0.166784 181 111 82
0.486252 -0.0766868 0.172126 180 103 74
0.491544 -0.0750472 0.174227 184 110 89
0.498056 -0.0658965 0.173934 227 207 196
0.696124 0.028407 0.23931 252 223 136
0.459034 -0.117938 0.172884 250 244 209
0.465245 -0.0875232 0.163801 220 158 136
0.454714 -0.129896 0.173792 252 239 210
0.466303 -0.109284 0.171504 249 231 197
0.467345 -0.103491 0.169691 248 216 186
0.46318 -0.0848112 0.159868 202 138 112
0.465851 -0.0796148 0.159159 187 116 90
0.472837 -0.0770138 0.161789 178 101 72
0.482608 -0.0762727 0.166649 180 99 67
0.505665 -0.0453203 0.1662 241 212 193
0.690662 0.0255719 0.23501 163 156 73
0.466016 -0.0997251 0.165739 247 201 177
0.508376 -0.0402058 0.163832 243 214 195
0.463651 -0.116129 0.16952 251 243 206
0.4641 -0.0939376 0.160609 233 171 149
0.459328 -0.0862693 0.154897 193 129 103
0.463024 -0.0782018 0.153545 182 104 70
0.470033 -0.0755403 0.156193 178 93 59
0.455197 -0.135304 0.171226 252 225 202
0.457304 -0.0835718 0.150915 190 113 86
0.479846 -0.0748499 0.159414 182 94 62
0.494539 -0.0757221 0.167672 186 101 67
0.462518 -0.123702 0.16866 252 244 207
0.464976 -0.104501 0.161987 246 211 183
0.461478 -0.0993941 0.157968 249 186 168
0.459609 -0.0934313 0.154473 214 152 124
0.45936 -0.0780329 0.147922 178 94 53
0.489416 -0.0758876 0.163273 183 98 61
0.506921 -0.0427029 0.158906 232 219 210
0.696036 0.0283165 0.231525 252 231 134
0.46685 -0.112025 0.164424 248 234 195
0.455237 -0.0911949 0.149386 215 149 118
0.453318 -0.0867469 0.14648 191 121 89
0.454629 -0.0806187 0.144626 182 90 59
0.469587 -0.0738894 0.149937 178 90 55
0.474836 -0.0736587 0.152693 180 92 57
0.461356 -0.0742589 0.1438 179 88 50
0.467252 -0.118866 0.164097 250 243 202
0.463935 -0.109296 0.158223 245 211 179
0.45551 -0.0983644 0.148965 231 167 141
0.45137 -0.0927975 0.144332 197 130 103
0.449465 -0.0883595 0.141407 185 100 69
0.449923 -0.0834466 0.139579 179 94 57
0.456808 -0.075195 0.139871 178 87 49
0.487276 -0.0765001 0.157173 182 91 53
0.501123 -0.076966 0.164982 213 135 115
0.688971 0.0247464 0.225194 130 126 68
0.693892 0.0259685 0.227382 201 190 113
0.466957 -0.1251 0.164871 251 244 203
0.45296 -0.0765981 0.136496 179 84 45
0.507797 -0.0378928 0.150343 251 237 217
0.458595 -0.142652 0.16602 251 203 187
0.460341 -0.106183 0.151393 241 170 147
0.446915 -0.0924489 0.138054 188 111 82
0.447314 -0.08055 0.133187 176 81 42
0.464166 -0.0710455 0.13849 178 87 49
0.469424 -0.070744 0.141285 179 88 50
0.474489 -0.0721309 0.144694 180 89 48
0.480932 -0.074417 0.149253 184 93 55
0.493745 -0.0790904 0.158376 184 93 55
0.465773 -0.117135 0.157359 245 214 181
0.444364 -0.0878081 0.132781 179 91 56
0.450955 -0.0757196 0.131268 175 78 36
0.457357 -0.0723814 0.133412 177 82 43
0.69811 0.0282649 0.224742 197 163 85
0.467749 -0.122992 0.159257 250 236 197
0.502358 -0.0814226 0.160749 185 100 63
0.462885 -0.114484 0.151078 249 175 154
0.447636 -0.103509 0.137688 223 146 119
0.44213 -0.0816625 0.125084 174 79 37
0.465448 -0.0686213 0.132602 178 87 46
0.44835 -0.0746444 0.123642 174 79 37
0.461665 -0.0699958 0.129182 177 82 40
0.701743 0.0339555 0.220288 252 238 155
0.466065 -0.144075 0.162329 251 199 180
0.469626 -0.130653 0.158474 249 221 190
0.465549 -0.120949 0.151883 245 189 168
0.440694 -0.0969449 0.127135 182 94 59
0.456468 -0.0705736 0.124578 176 81 39
0.498037 -0.0416289 0.13564 152 144 125
0.505171 -0.0358147 0.137166 249 235 215
0.442315 -0.104771 0.129621 223 145 125
0.689841 0.0217964 0.21609 128 124 66
0.696672 0.0215934 0.220107 124 120 57
0.466596 -0.149189 0.161475 251 195 177
0.447212 -0.0744247 0.117108 172 77 35
0.503094 -0.0755513 0.149917 184 174 160
0.495433 -0.0416028 0.130431 168 150 134
0.47227 -0.138562 0.158324 252 210 185
0.469618 -0.129739 0.152849 247 190 166
0.439319 -0.105379 0.124373 196 104 76
0.453056 -0.0707385 0.116917 173 78 36
0.5072 -0.0866946 0.155509 206 123 95
0.50556 -0.0806328 0.151852 249 236 213
0.704513 0.0246061 0.220603 168 151 88
0.467549 -0.125859 0.148146 246 172 154
0.7083 0.0329007 0.217751 228 211 148
0.470997 -0.151756 0.160061 247 198 177
0.472324 -0.136005 0.153746 248 185 167
0.446113 -0.0742351 0.110515 169 74 28
0.500567 -0.0741021 0.142467 214 189 176
0.491402 -0.0480966 0.125365 184 169 156
0.694902 0.0211972 0.213785 188 185 101
0.70225 0.0176355 0.219709 250 235 130
0.440312 -0.113239 0.122771 216 136 110
0.503001 -0.079205 0.144419 249 220 199
0.497447 -0.0412766 0.123964 187 146 127
0.706513 0.0141108 0.222473 240 230 143
0.710186 0.0109563 0.226072 146 125 70
0.474243 -0.143318 0.154718 252 181 161
0.434267 -0.105446 0.113721 178 77 39
0.434258 -0.0860967 0.10491 167 66 16
0.440531 -0.0786645 0.105257 169 70 22
0.494049 -0.0574055 0.127393 142 136 127
0.714352 0.00734836 0.228875 159 153 103
0.471668 -0.133289 0.146855 238 157 134
0.612415 -0.00867651 0.173979 243 216 116
0.692379 0.0236315 0.206995 176 169 86
0.700182 0.0194144 0.213588 244 213 118
0.721231 0.00620511 0.232211 199 185 125
0.471331 -0.139459 0.147714 251 167 146
0.431356 -0.0992182 0.105187 167 66 16
0.437263 -0.0826555 0.101122 166 65 15
0.446565 -0.075095 0.103236 167 72 30
0.501765 -0.0388534 0.119749 137 133 113
0.715813 0.00159734 0.229794 252 242 161
0.476198 -0.149294 0.153432 243 165 148
0.444595 -0.119483 0.120555 195 115 86
0.438888 -0.115131 0.115096 183 86 54
0.433426 -0.0898203 0.100098 166 61 9
0.494499 -0.0633867 0.12291 250 201 180
0.611406 -0.0143349 0.171163 227 223 143
0.617863 -0.00663289 0.17151 239 194 109
0.720429 -0.00241732 0.231876 201 193 117
0.725307 -0.00242171 0.234842 189 178 116
0.474751 -0.146166 0.147605 228 159 145
0.468319 -0.138779 0.140226 240 159 136
0.433538 -0.109636 0.105368 170 68 22
0.687616 0.0242679 0.198092 121 120 55
0.703422 0.0136283 0.212717 249 234 129
0.479749 -0.152978 0.152108 147 143 136
0.441496 -0.122046 0.114091 189 108 88
0.43309 -0.0956135 0.0965226 166 57 4
0.495152 -0.0603145 0.118085 250 201 180
0.615679 -0.011157 0.169064 209 195 112
0.473371 -0.143011 0.141729 226 157 141
0.438789 -0.119366 0.109213 174 77 48
0.432338 -0.102534 0.0972883 165 60 11
0.436223 -0.0902596 0.093899 161 64 28
0.493739 -0.0666898 0.118311 251 210 191
0.625001 -0.00083522 0.168334 229 194 103
0.697311 0.0203502 0.203009 215 205 121
0.725875 -0.00766185 0.233867 137 134 80
0.434847 -0.114374 0.102432 169 63 21
0.433058 -0.110087 0.0992889 167 61 16
0.440084 -0.0852548 0.0918797 167 86 51
0.497375 -0.0564406 0.113804 247 244 233
0.6937 0.0235561 0.19782 185 177 98
0.598116 0.313601 0.00094163 178 172 105
0.732238 -0.0117766 0.237272 157 156 94
0.605438 0.314949 0.00239219 207 193 136
0.434286 -0.102383 0.0923301 162 63 18
0.437525 -0.095123 0.090887 159 68 30
0.491013 -0.0687267 0.111832 233 192 173
0.62942 0.00249658 0.164631 245 234 137
0.433536 -0.109262 0.0931208 165 84 52
0.624645 -0.00697728 0.164543 192 189 105
0.691401 0.0232983 0.192117 157 149 73
0.605529 0.309445 0.000150896 184 173 111
0.610321 0.310772 0.00253763 195 182 118
0.614021 0.314619 0.00302169 219 198 141
0.634923 0.0060531 0.163129 251 248 159
0.702437 0.01595 0.201199 247 226 129
0.49379 -0.0671542 0.10701 151 136 123
0.688501 0.0234 0.187253 130 126 66
0.611879 0.306018 0.00090786 189 178 116
0.629805 -0.0026154 0.160799 213 199 116
0.697197 0.0208988 0.192555 209 201 110
0.700925 0.0180795 0.196325 249 228 134
0.635474 0.00110896 0.157683 199 198 121
0.691752 0.0228486 0.182089 157 154 84
0.500181 -0.141324 0.136556 178 175 158
0.506839 -0.120013 0.130262 252 223 204
0.640224 0.00362787 0.156228 226 219 136
0.650764 0.0157804 0.157086 167 160 97
0.696935 0.0248515 0.182982 219 201 113
0.504989 -0.125485 0.129969 220 206 189
0.502916 -0.133912 0.131029 204 198 186
0.644956 0.00613392 0.154782 209 201 107
0.690162 0.0233495 0.176194 146 136 68
0.500399 -0.138984 0.130106 177 176 155
0.698504 0.0284823 0.177624 252 242 133
0.512574 -0.114193 0.123805 252 238 221
0.466235 -0.0475865 0.0585143 89 74 64
0.663704 0.0177377 0.156494 216 212 135
0.500686 -0.136632 0.123595 175 172 155
0.504207 -0.129063 0.122081 214 203 186
0.509109 -0.122174 0.121861 243 219 200
0.465407 -0.0471881 0.0533547 35 20 13
0.654086 0.00939707 0.152605 217 197 113
0.69098 0.0245141 0.169918 162 155 72
0.512408 -0.111245 0.116585 156 141 131
0.687095 0.0255889 0.165125 133 130 60
0.696522 0.028365 0.170138 252 223 123
0.507579 -0.10524 0.108244 250 230 209
0.470235 -0.0545586 0.0560876 208 188 177
0.497067 -0.138552 0.116519 168 167 146
0.500644 -0.130921 0.114991 215 209 194
0.504928 -0.123598 0.114115 219 205 188
0.509731 -0.118153 0.114582 233 215 197
0.660289 0.0100068 0.151544 224 214 143
0.468206 -0.0493721 0.0475399 22 14 16
0.665015 0.0139558 0.151079 252 237 148
0.672717 0.0234789 0.151417 189 186 119
0.693628 0.0268589 0.164183 201 194 106
0.510554 -0.112361 0.108298 226 220 205
0.506097 -0.103057 0.100251 250 221 200
0.685358 0.0268835 0.156787 143 133 62
0.689473 0.0261802 0.160038 155 151 74
0.497772 -0.133205 0.108489 165 164 143
0.507775 -0.11915 0.108039 237 213 194
0.47643 -0.0609438 0.0550022 147 134 122
0.501331 -0.12721 0.105875 207 194 182
0.668698 0.0162598 0.147413 242 232 145
0.679085 0.0256882 0.14971 168 158 92
0.495852 -0.132636 0.102967 165 162 145
0.508196 -0.111427 0.100333 230 216 199
0.695942 0.0299554 0.157724 245 221 123
0.5035 -0.122207 0.100847 192 181 164
0.505557 -0.116745 0.0993646 232 207 191
0.506309 -0.105403 0.0937708 247 220 199
0.479234 -0.0688742 0.0546794 221 201 190
0.691879 0.0267639 0.154918 183 175 84
0.497175 -0.12885 0.0979581 163 157 145
0.477877 -0.0661665 0.0500417 60 49 47
0.67313 0.0195981 0.143702 209 206 122
0.499983 -0.123959 0.0953453 202 189 177
0.502727 -0.118824 0.094523 210 200 186
0.504181 -0.112941 0.0923609 229 208 194
0.504824 -0.103076 0.0874399 245 218 200
0.499776 -0.0948091 0.0792808 239 212 194
0.684598 0.0253593 0.147138 157 135 73
0.678155 0.0213183 0.142997 207 200 102
0.690065 0.0252813 0.149469 161 154 71
0.502663 -0.110689 0.0860123 228 207 193
0.501639 -0.103208 0.0811394 237 212 196
0.497013 -0.0969651 0.0743204 238 211 193
0.497152 -0.0916724 0.0715032 235 211 192
0.480353 -0.0757741 0.050475 197 186 169
0.476609 -0.0695671 0.044319 43 26 23
0.697905 0.0298419 0.15101 252 242 136
0.498273 -0.12359 0.0879166 191 188 171
0.478046 -0.0744551 0.0458433 43 37 39
0.683146 0.0230127 0.14231 188 187 93
0.500725 -0.116708 0.0838758 196 193 176
0.498466 -0.10339 0.0747918 227 209 191
0.71012 0.045577 0.147935 245 190 102
0.494662 -0.0977643 0.066741 215 207 188
0.705063 0.0396532 0.145835 244 227 107
0.500342 -0.111702 0.0766961 202 199 182
0.696771 0.0279084 0.144583 249 228 131
0.691115 0.023529 0.139432 159 158 81
0.710416 0.0417504 0.141934 241 217 125
0.704275 0.0380226 0.137705 230 219 145
0.697695 0.0299039 0.135636 252 242 136
0.693243 0.0247631 0.133464 185 175 88
0.689717 0.0232457 0.128128 136 133 66
0.700697 0.0361928 0.129086 250 247 135
0.69623 0.0285252 0.128349 240 212 115
0.700023 0.0358257 0.121696 246 243 131
0.692187 0.0246375 0.120365 178 175 91
0.696984 0.0301516 0.120884 252 223 123
0.690059 0.0235089 0.113905 145 142 69
0.700116 0.0364229 0.114193 248 244 129
0.695918 0.0278922 0.114168 234 210 115
0.690483 0.0256507 0.105554 162 159 75
0.696841 0.0309679 0.107515 251 231 128
0.618518 0.0890734 0.00418673 220 216 171
0.685918 0.02742 0.0987804 125 121 61
0.699458 0.0368224 0.104179 247 244 132
0.614264 0.0764629 0.00615244 209 191 135
0.674694 0.0233857 0.0900172 251 222 157
0.612936 0.0679861 0.00800194 202 188 128
0.680835 0.0281273 0.0902428 243 225 169
0.613534 0.0622398 0.00978015 194 180 123
0.618931 0.0734053 0.00726691 214 192 130
0.622728 0.0787404 0.00709601 225 198 138
0.621688 0.0832494 0.00335899 227 198 139
0.69097 0.0277443 0.0971073 181 171 90
0.696616 0.0320944 0.0991235 252 239 134
0.619496 0.0676261 0.00905629 210 189 132
0.609855 0.0499056 0.00979926 171 161 115
0.626636 0.0711067 0.0105652 218 184 127
0.688975 0.0279709 0.0914288 172 155 71
0.618804 0.053576 0.0127634 189 178 116
0.624392 0.0614267 0.0125119 202 182 118
0.677799 0.0238383 0.0825515 251 223 154
0.610391 0.0423466 0.0104163 194 188 118
0.617663 0.0478335 0.0131469 193 183 117
0.624973 0.055739 0.0143469 191 171 110
0.631846 0.0642122 0.014802 217 188 129
0.686197 0.02704 0.085747 144 124 60
0.622908 0.0487152 0.0147835 189 179 113
0.630685 0.058462 0.0152 207 178 116
0.609156 0.0346984 0.00960715 202 184 125
0.620031 0.0429155 0.0137278 202 189 125
0.628619 0.0514517 0.0156463 186 169 106
0.636222 0.0586034 0.0176092 214 187 127
0.682246 0.0255804 0.079311 248 214 154
0.696601 0.0292719 0.0894218 250 235 130
0.615809 0.0364016 0.0119623 214 194 133
0.63377 0.052245 0.0173162 190 169 114
0.625547 0.0412971 0.0149701 203 186 120
0.692342 0.0262207 0.0837796 202 187 98
0.67347 0.123858 0.00277436 249 220 155
0.61232 0.0268121 0.0105191 243 214 155
0.622279 0.0361305 0.0131675 209 181 110
0.631621 0.0434152 0.0166177 188 175 111
0.638254 0.0492296 0.0186416 181 167 110
0.642258 0.0536875 0.0192355 200 179 122
0.680858 0.0226289 0.0740107 250 205 142
0.68777 0.0253307 0.0783444 143 125 51
0.61942 0.0303686 0.0121186 239 196 126
0.610686 0.0198393 0.00900022 141 137 95
0.628269 0.0364064 0.0136548 210 188 120
0.680002 0.123047 0.00199032 252 224 153
0.643485 0.0456136 0.0188196 166 152 95
0.683815 0.0245718 0.06926 167 126 66
0.69662 0.0263259 0.0796028 248 220 126
0.686381 0.126762 0.00285002 197 183 126
0.622172 0.0255294 0.0108078 246 211 145
0.626641 0.0294939 0.0121704 251 210 150
0.635505 0.0373215 0.0148988 206 195 133
0.640294 0.0405796 0.0170289 182 175 115
0.620659 0.0205129 0.0104879 249 214 148
0.689809 0.0253455 0.0700792 184 162 72
0.617335 0.0129574 0.0102534 250 216 153
0.652971 0.0457599 0.0204354 174 153 96
0.682884 0.0233192 0.0630898 241 193 125
0.69539 0.0259254 0.0727413 234 203 108
0.637276 0.0312059 0.0137017 231 197 137
0.645112 0.0376232 0.0164996 197 180 112
0.649444 0.0414122 0.0178799 181 163 104
0.631866 0.0241848 0.0112116 252 220 153
0.681698 0.0243257 0.0571335 224 195 136
0.689705 0.0252661 0.0638794 183 162 65
0.694609 0.0264286 0.0676067 230 206 114
0.619141 0.00458879 0.0106261 181 163 107
0.624966 0.0116304 0.0111555 251 219 152
0.660546 0.0433399 0.0222183 179 165 105
0.630665 0.0167842 0.0105361 247 212 146
0.642114 0.0283122 0.0131946 247 208 143
0.646456 0.0321325 0.0145861 221 194 134
0.680166 0.025928 0.0503608 210 190 129
0.696558 0.0295836 0.0631116 250 225 114
0.652816 0.0359652 0.0155432 204 193 134
0.65909 0.0390949 0.0192377 176 168 114
0.690768 0.0256218 0.0583761 198 177 80
0.635743 0.0182299 0.00959343 248 198 140
0.676508 0.0312786 0.0388537 180 162 109
0.685816 0.025077 0.051989 174 143 66
0.707312 0.115386 0.00876411 251 224 149
0.627935 0.00215936 0.0111921 252 227 157
0.633356 0.01204 0.00934958 250 232 158
0.643076 0.0234342 0.0105106 250 218 148
0.69424 0.028581 0.0553629 251 213 110
0.624688 -0.00522731 0.0109947 181 159 111
0.659651 0.0348706 0.0158304 205 191 134
0.665337 0.0360908 0.0203815 181 167 112
0.682813 0.0267944 0.04363 170 149 78
0.712717 0.118458 0.0070326 182 174 120
0.655792 0.0311554 0.0124674 247 211 152
0.66999 0.034221 0.0238749 180 166 109
0.693498 0.0289856 0.0501222 252 209 111
0.708409 0.10621 0.0092961 245 211 139
0.640974 0.0153903 0.00717111 250 232 158
0.689265 0.0271118 0.0452491 199 170 70
0.704377 0.0382416 0.0518141 245 230 139
0.630012 -0.00842629 0.0113615 202 175 112
0.634555 0.00243622 0.00792918 252 227 157
0.646095 0.0186503 0.00740978 249 235 155
0.664661 0.0312989 0.0162577 211 200 141
0.683944 0.0270399 0.0379847 177 150 72
0.717912 0.116197 0.00659828 243 222 167
0.670181 0.0306977 0.0197449 187 176 117
0.635499 -0.00518947 0.0096591 252 231 157
0.640953 0.0069291 0.0061704 247 211 149
0.651966 0.021289 0.00648552 252 249 165
0.674427 0.0294534 0.0225018 185 167 114
0.690886 0.0291845 0.0387882 234 196 87
0.709271 0.0449907 0.0452581 252 225 150
0.717016 0.107119 0.00761176 246 212 137
0.633118 -0.0135449 0.0110733 195 171 114
0.705134 0.0376381 0.0444058 247 230 146
0.647716 0.0108401 0.00521747 250 195 127
0.681257 0.0269342 0.0265189 181 159 91
0.687004 0.0272498 0.0319631 194 159 68
0.643018 -0.00186538 0.00756033 249 213 151
0.646135 0.00361985 0.00660343 247 198 134
0.653665 0.0153054 0.00544786 252 228 151
0.673057 0.0259704 0.0168243 247 234 167
0.691887 0.0325297 0.0306758 252 217 106
0.724144 0.106594 0.00799197 243 209 131
0.726858 0.113724 0.00541996 182 175 115
0.636205 -0.0186226 0.0108324 169 155 100
0.64009 -0.014266 0.011476 248 216 149
0.64189 -0.00953167 0.00975795 250 229 158
0.659948 0.0191486 0.00648953 245 235 151
0.706188 0.0571562 0.0221538 251 224 149
0.725241 0.0993237 0.00980959 248 238 157
0.647301 -0.00634441 0.00809756 251 227 147
0.649132 -0.00157818 0.00637037 251 203 129
0.65224 0.00388508 0.00540806 252 202 129
0.687414 0.026982 0.0235626 201 166 72
0.691933 0.0322353 0.0241816 252 214 111
0.658254 0.0106701 0.00401389 252 235 154
0.683434 0.0241699 0.0193672 243 230 160
0.730459 0.102277 0.00818298 251 241 157
0.640895 -0.0230232 0.00945559 155 144 88
0.647804 -0.0133154 0.00914462 245 225 147
0.718033 0.0842694 0.00680992 250 240 156
0.734414 0.107285 0.00607263 174 167 110
0.645909 -0.019799 0.00977629 250 221 156
0.654222 -0.00433092 0.00414541 252 228 151
0.659058 0.0035489 0.00309764 251 237 157
0.716656 0.0768789 0.00631607 250 240 153
0.733725 0.0976061 0.00803818 250 249 169
0.690441 0.0254183 0.0163765 239 232 147
0.695808 0.0318775 0.0169669 251 247 126
0.703672 0.0418441 0.017445 248 241 153
0.712265 0.0625783 0.0104019 252 237 148
0.646801 -0.0267034 0.00891983 165 148 105
0.654298 -0.0107713 0.00441247 249 235 155
0.723853 0.0815595 0.00545177 252 242 155
0.651765 -0.0235126 0.00926788 245 213 143
0.654016 -0.0171198 0.00665886 252 249 165
0.716883 0.066904 0.00717296 252 249 160
0.740728 0.100408 0.00609969 242 234 155
0.666545 0.00207222 0.00247916 249 246 159
0.7148 0.0569863 0.0103614 250 240 153
0.723326 0.0754091 0.00495055 246 243 156
0.661759 -0.00522275 0.000746746 247 233 148
0.652639 -0.0303646 0.00846433 164 153 91
0.658474 -0.014689 0.00230975 249 246 162
0.706521 0.0378646 0.0119311 248 241 153
0.729274 0.0762438 0.00585675 251 244 156
0.657167 -0.0266848 0.00801351 223 198 128
0.659033 -0.0198007 0.00455495 251 244 156
0.662666 -0.0104348 0.00101688 247 244 157
0.703599 0.033228 0.0101418 241 240 146
0.711201 0.0407125 0.0123306 248 240 149
0.721249 0.0612234 0.00681653 252 242 155
0.668443 -0.00607951 0.00134386 247 233 150
0.673434 -0.00119194 0.00281033 250 243 155
0.734211 0.074101 0.00575835 245 242 155
0.739149 0.0778604 0.0080786 251 237 157
0.659251 -0.0328249 0.00805124 169 159 93
0.662791 -0.023623 0.00449417 252 249 165
0.662991 -0.0191146 0.00108744 247 243 163
0.666404 -0.0143198 0.000933846 252 249 165
0.71758 0.0449043 0.0088236 243 230 141
0.672496 -0.0105466 0.00211728 245 235 154
0.728646 0.0609699 0.0055495 252 235 154
0.748462 0.0824883 0.0097658 252 251 171
0.709566 0.0315138 0.00618445 252 249 162
0.714329 0.0361034 0.00767665 250 207 131
0.736338 0.0691294 0.00497949 246 243 156
0.74717 0.0769909 0.010465 247 229 155
0.667263 -0.0284706 0.00615803 234 200 125
0.733981 0.0631766 0.00486554 252 238 158
0.744592 0.0717957 0.00951927 250 240 156
0.671463 -0.0220744 0.00317754 250 240 159
0.677351 -0.0138017 0.00291254 251 244 159
0.724132 0.0467014 0.00509271 247 240 155
0.667721 -0.0351897 0.00741943 175 168 111
0.68111 -0.00908029 0.000803287 251 241 154
0.682781 -0.00151991 -0.00356732 250 243 155
0.715729 0.0301788 0.00697684 245 242 155
0.734798 0.0569722 0.00611855 242 239 152
0.740845 0.0644268 0.00670543 251 248 161
0.674749 -0.0258605 0.00517269 251 248 161
0.678083 -0.0211755 0.00502261 250 226 149
0.72199 0.0353173 0.00735147 250 204 125
0.750624 0.0693129 0.0112287 247 240 155
0.754488 0.0757817 0.0101938 250 240 159
0.686878 0.00618307 -0.0102516 250 240 153
0.714455 0.0231579 0.00662887 247 246 166
0.745967 0.063287 0.00866231 251 248 161
0.676356 -0.031948 0.007282 241 207 132
0.686059 0.000296148 -0.00872242 252 238 153
0.719056 0.025981 0.00708986 252 238 158
0.743409 0.0581296 0.0077235 250 236 151
0.674511 -0.0381764 0.00803699 171 167 104
0.684795 -0.0175394 0.00237324 252 235 154
0.685596 -0.011259 -0.00199681 252 232 151
0.727743 0.0376494 0.0047742 250 209 135
0.684289 -0.0260053 0.00653903 248 231 153
0.719714 0.0206851 0.00755072 245 228 150
0.726263 0.0298863 0.00725597 248 227 153
0.75092 0.0604189 0.00962109 251 248 164
0.757047 0.0669703 0.0110828 252 249 162
0.69577 0.00701447 -0.0107075 252 238 153
0.691092 -0.000154471 -0.0124621 247 201 120
0.7491 0.0547654 0.00761436 251 248 161
0.686552 -0.0326271 0.00763626 250 211 144
0.69072 -0.0145356 -0.00304564 242 218 141
0.691253 -0.00766771 -0.00831679 251 215 133
0.719462 0.0125945 0.00702949 247 244 155
0.725438 0.0199705 0.00763506 246 232 152
0.732255 0.0346471 0.00295561 250 225 152
0.684711 -0.0388005 0.0084238 179 176 106
0.691009 -0.0269016 0.00551097 245 214 134
0.698107 0.00239013 -0.0114611 247 201 122
0.730215 0.0251358 0.00637568 250 223 148
0.693181 -0.0223644 0.00172796 249 206 136
0.696949 -0.00287483 -0.010739 251 203 129
0.703996 0.00601215 -0.0101778 251 237 152
0.758831 0.0587245 0.00843532 251 241 160
0.693316 -0.0318273 0.00770848 251 208 132
0.695388 -0.0177953 -0.00206825 250 230 146
0.73934 0.0399157 -0.00052523 247 227 149
0.697748 -0.0261345 0.00558626 246 212 137
0.699172 -0.0080027 -0.00859373 250 202 134
0.726963 0.0118905 0.00691804 249 242 154
0.736781 0.0347583 -0.00146404 251 236 160
0.692865 -0.0395661 0.00918448 195 184 110
0.733847 0.0180158 0.00733992 251 241 160
0.737095 0.0255953 0.00454124 252 231 157
0.699855 -0.0332806 0.00960937 231 186 101
0.701699 -0.0136487 -0.00553741 247 230 146
0.709828 0.00378771 -0.0112199 252 237 148
0.705682 -0.0276188 0.00920627 247 241 149
0.748553 0.0406151 0.000172349 252 227 154
0.704616 -0.00671602 -0.0131319 251 250 156
0.705913 -0.000907562 -0.0167501 248 242 150
0.738065 0.0143666 0.00850171 252 249 162
0.740491 0.0207658 0.00572259 247 244 160
0.745544 0.0368358 -0.00251453 249 239 158
0.700884 -0.0403848 0.010044 197 189 110
0.705652 -0.0336865 0.0098294 243 197 118
0.741945 0.0312215 -0.00429067 251 244 161
0.752783 0.0344491 0.00118696 247 244 160
0.70892 -0.0390779 0.00919611 205 199 127
0.749146 0.0272663 -0.00161065 251 247 167
0.759299 0.0356378 0.0033301 248 244 164
0.714345 -0.0329574 0.00793849 249 207 124
0.719889 -0.0350479 0.0072722 219 209 141
0.726865 -0.0277987 0.00211094 243 226 158
0.734801 -0.0205953 0.000653507 250 232 160
0.740877 -0.0178893 0.00113309 247 230 162
0.747389 -0.0164207 0.00346946 235 234 172
0.674172 0.043295 0.188897 66 55 38
0.677362 0.0344312 0.186301 125 80 30
0.681316 0.0291221 0.185189 123 82 25
0.674782 0.0395301 0.184637 110 78 36
0.682335 0.0274271 0.179787 125 80 30
0.672705 0.0391972 0.178557 110 79 43
0.677478 0.0327895 0.177215 126 78 29
0.684744 0.0254254 0.1715 141 96 49
0.675554 0.0357854 0.171339 121 76 31
0.679554 0.0304149 0.170213 130 82 36
0.670959 0.0409653 0.171258 67 57 43
0.676449 0.0323959 0.16572 129 81 32
0.681418 0.0292644 0.164574 134 84 32
0.672647 0.0365096 0.165414 117 79 33
0.454303 -0.104428 0.185903 196 127 111
0.516567 -0.0925393 0.170428 198 117 100
0.450159 -0.113135 0.183571 161 80 63
0.520709 -0.0970103 0.168445 232 169 154
0.449076 -0.121369 0.182079 175 90 78
0.452711 -0.0991438 0.181396 108 48 35
0.524117 -0.108698 0.164605 216 138 115
0.45046 -0.105289 0.180957 125 55 45
0.516654 -0.093712 0.164276 167 82 70
0.520761 -0.104388 0.162947 203 102 92
0.451107 -0.133544 0.177715 165 80 68
0.524262 -0.112087 0.16013 193 81 70
0.448105 -0.109948 0.177755 136 56 46
0.447862 -0.122143 0.176755 151 68 56
0.447774 -0.102545 0.175855 125 52 37
0.453616 -0.141156 0.173449 162 77 68
0.458019 -0.148777 0.172168 171 93 76
0.446503 -0.116744 0.175107 147 64 52
0.464445 -0.154492 0.169742 239 172 151
0.446702 -0.126574 0.173429 156 76 64
0.471059 -0.158601 0.165184 161 85 71
0.454652 -0.145577 0.168952 158 77 60
0.477857 -0.16145 0.162664 159 93 78
0.446118 -0.109183 0.171012 144 63 46
0.445923 -0.114537 0.170262 147 63 48
0.447773 -0.129395 0.168878 160 72 58
0.44938 -0.134937 0.168388 161 71 62
0.452223 -0.140446 0.16757 159 74 65
0.4458 -0.122189 0.168767 156 72 57
0.459322 -0.150487 0.164866 155 79 68
0.46484 -0.154367 0.16122 153 80 68
0.454807 -0.146459 0.163311 160 77 65
0.475092 -0.158547 0.157657 141 81 68
0.48406 -0.162173 0.155163 145 135 127
0.444982 -0.116966 0.1654 154 70 55
0.445488 -0.10474 0.164529 147 59 42
0.469158 -0.15667 0.157865 147 81 66
0.44572 -0.127399 0.163738 163 72 59
0.451466 -0.141823 0.162131 163 75 61
0.444121 -0.12242 0.16346 170 75 61
0.448296 -0.136402 0.162309 165 74 61
0.443612 -0.111079 0.162084 157 62 45
0.461908 -0.152358 0.157037 155 79 65
0.478605 -0.159731 0.15225 132 89 73
0.457946 -0.148073 0.156718 162 81 64
0.473544 -0.157339 0.152224 139 79 66
0.453426 -0.144187 0.15729 165 74 61
0.468104 -0.154422 0.152325 148 78 68
0.443356 -0.0984509 0.158234 139 55 34
0.444894 -0.128773 0.158193 168 73 56
0.442663 -0.106375 0.157791 156 62 41
0.443238 -0.122089 0.15786 173 74 58
0.447106 -0.133923 0.156875 173 74 58
0.450024 -0.139501 0.15608 166 75 57
0.442336 -0.113647 0.1565 156 65 47
0.461665 -0.151194 0.151279 159 79 67
0.475337 -0.158489 0.146474 128 92 76
0.452252 -0.143424 0.151831 162 78 60
0.470765 -0.155071 0.146313 143 79 67
0.441256 -0.108285 0.152914 162 64 44
0.443633 -0.129594 0.152729 166 75 60
0.440974 -0.11832 0.152519 174 75 55
0.462529 -0.151078 0.145817 152 79 67
0.457489 -0.148121 0.146606 168 84 66
0.466684 -0.152792 0.14302 144 80 68
0.473287 -0.155098 0.140945 136 83 70
0.478184 -0.156754 0.139404 165 138 133
0.441097 -0.123886 0.149648 163 68 54
0.447551 -0.137464 0.148004 172 78 57
0.453894 -0.144342 0.146163 167 83 65
0.439835 -0.111269 0.148853 153 65 48
0.459467 -0.14903 0.141484 156 82 64
0.439672 -0.118097 0.146107 180 83 57
0.442964 -0.130659 0.145531 176 78 56
0.469704 -0.152447 0.136625 139 79 66
0.475892 -0.155876 0.134666 153 150 139
0.45126 -0.142848 0.141738 167 83 65
0.463264 -0.150841 0.137985 145 79 64
0.43935 -0.0971144 0.142098 157 65 37
0.439979 -0.123338 0.141649 168 73 56
0.457661 -0.147076 0.136675 159 81 61
0.437902 -0.113007 0.141051 179 82 53
0.441505 -0.129149 0.140657 179 77 52
0.445787 -0.134898 0.139452 178 79 56
0.470818 -0.153969 0.131615 132 84 73
0.437875 -0.118353 0.140578 175 77 50
0.466202 -0.150476 0.13149 139 82 68
0.436562 -0.108008 0.138879 161 62 39
0.437602 -0.100307 0.137232 165 68 42
0.460872 -0.148165 0.130925 143 79 67
0.454097 -0.144421 0.132392 165 77 60
0.437619 -0.0907947 0.13415 112 57 52
0.440432 -0.128212 0.1356 181 83 54
0.445656 -0.136827 0.134237 177 78 58
0.449489 -0.140371 0.133052 162 77 65
0.437256 -0.119681 0.135425 162 71 53
0.437162 -0.0966887 0.132237 144 66 46
0.436028 -0.111128 0.133702 180 82 55
0.472282 -0.151821 0.12293 120 89 78
0.435862 -0.103482 0.132401 165 67 45
0.464485 -0.148289 0.124818 143 84 67
0.457246 -0.14549 0.12657 146 80 65
0.443622 -0.134103 0.130139 178 79 56
0.447463 -0.137669 0.128936 159 78 61
0.451437 -0.141953 0.126948 165 81 63
0.468412 -0.148387 0.119243 127 86 72
0.43508 -0.100011 0.126659 145 67 50
0.434416 -0.105445 0.127388 147 63 42
0.435294 -0.116112 0.127954 165 67 47
0.438275 -0.124858 0.127522 178 80 51
0.440988 -0.130081 0.126894 177 79 50
0.455294 -0.143509 0.12157 148 75 63
0.443391 -0.134384 0.124722 170 76 55
0.447247 -0.137984 0.123497 158 80 63
0.461395 -0.145938 0.118532 140 83 71
0.433973 -0.0923442 0.1239 114 61 48
0.433848 -0.110061 0.124743 166 76 54
0.721505 -0.0367562 0.00120093 150 144 135
0.467856 -0.148978 0.112882 127 92 82
0.713249 -0.0372989 0.00136519 158 143 136
0.441153 -0.130939 0.121304 172 78 57
0.434459 -0.114663 0.121652 156 68 48
0.448574 -0.138313 0.11815 166 82 61
0.453292 -0.141514 0.11651 144 81 66
0.463614 -0.145976 0.112668 130 82 68
0.432739 -0.100393 0.120096 128 69 52
0.435743 -0.120067 0.120842 171 77 56
0.706132 -0.0388444 -0.000388931 153 133 122
0.432968 -0.105953 0.11973 146 76 69
0.458576 -0.143459 0.11285 134 84 70
0.432138 -0.0944775 0.118034 117 64 51
0.437979 -0.126274 0.118096 171 76 59
0.433212 -0.11108 0.117662 158 84 66
0.693328 -0.0415542 -0.00110787 160 140 135
0.441299 -0.131824 0.115645 165 77 57
0.445623 -0.136075 0.114257 156 82 64
0.452939 -0.140233 0.110739 134 84 70
0.462341 -0.143539 0.107045 133 85 71
0.687836 -0.0440746 -0.00164491 155 145 134
0.43156 -0.0888203 0.113321 111 61 49
0.433434 -0.116153 0.115631 148 75 63
0.46948 -0.145541 0.10158 141 137 130
0.676702 -0.0462185 -0.00126409 154 148 139
0.434824 -0.121227 0.113118 156 78 61
0.439087 -0.129045 0.111341 157 79 59
0.442976 -0.132723 0.110059 139 80 63
0.44857 -0.137147 0.10811 137 81 63
0.43044 -0.0856127 0.10901 103 65 54
0.453774 -0.140065 0.105303 129 81 70
0.430176 -0.101246 0.110196 125 76 69
0.431547 -0.113864 0.111162 134 74 64
0.459843 -0.142616 0.102044 130 82 71
0.430201 -0.108002 0.110179 136 83 73
0.429725 -0.0941013 0.107747 119 66 53
0.444188 -0.133066 0.104509 135 78 64
0.435441 -0.123411 0.106402 140 80 67
0.455371 -0.139456 0.0993525 126 85 69
0.433423 -0.118201 0.10578 135 78 66
0.438671 -0.127333 0.103739 137 80 66
0.459845 -0.142021 0.0958801 126 85 69
0.429463 -0.0835096 0.101061 102 64 53
0.428742 -0.0916908 0.102547 118 68 56
0.449567 -0.13642 0.0990434 131 81 67
0.427991 -0.0969975 0.100984 117 67 55
0.428946 -0.104355 0.101603 131 79 72
0.612523 -0.0646575 0.00674778 117 89 78
0.454517 -0.138317 0.092592 125 84 70
0.461086 -0.142591 0.090063 155 145 131
0.434632 -0.122787 0.0989958 133 80 67
0.446005 -0.133516 0.0951075 131 81 67
0.430729 -0.115087 0.0988495 129 79 67
0.607644 -0.0669406 0.00518072 142 136 124
0.429244 -0.0819565 0.0935496 95 68 60
0.441361 -0.129926 0.0950741 131 81 67
0.426756 -0.090367 0.0942511 113 72 58
0.426908 -0.0965937 0.095169 119 71 57
0.428151 -0.108804 0.0965002 132 79 66
0.432452 -0.119096 0.0960107 132 79 66
0.44877 -0.134981 0.0904599 123 82 68
0.458086 -0.138453 0.0863987 123 85 74
0.427447 -0.102992 0.0941317 128 79 72
0.436737 -0.125044 0.0922034 127 79 68
0.443342 -0.130557 0.0880111 128 80 66
0.452729 -0.135678 0.0841044 121 86 73
0.460385 -0.138475 0.0806847 149 145 138
0.432673 -0.118872 0.0896803 130 80 66
0.428874 -0.112851 0.0896954 127 77 63
0.424416 -0.0970162 0.0883087 94 80 77
0.438377 -0.126755 0.0854321 127 79 65
0.446933 -0.132294 0.08196 118 80 69
0.425463 -0.10405 0.0871938 110 78 71
0.454739 -0.13652 0.0767952 120 102 86
0.434817 -0.122213 0.0837737 121 78 65
0.442251 -0.12833 0.0800545 124 81 65
0.429013 -0.115571 0.0838108 109 74 61
0.425634 -0.110133 0.0836816 82 72 64
0.449627 -0.132606 0.0741398 108 84 65
0.431122 -0.119231 0.0797367 75 69 60
0.436623 -0.125724 0.0770965 96 85 68
0.443761 -0.129435 0.0739188 94 84 70
0.505996 -0.207945 0.00515783 218 214 210
0.502162 -0.204064 0.00447852 212 211 211
0.50584 -0.214482 0.00515777 218 217 217
0.498394 -0.207613 0.00291044 226 220 222
0.491549 -0.20301 0.00312956 213 209 205
0.497153 -0.215954 0.00335078 228 220 228
0.492661 -0.209184 0.00330957 227 214 219
0.490773 -0.215236 0.00357396 215 213 216
0.486483 -0.210082 0.00393859 216 212 208
0.48447 -0.218432 0.00314676 209 207 210
0.457567 -0.214433 0.00341404 201 200 200
0.459877 -0.223293 0.00409114 198 197 197
0.454094 -0.219789 0.00446646 201 200 200
0.45182 -0.225378 0.00476096 202 201 201
0.4478 -0.217959 0.00403833 198 197 197
0.445429 -0.225698 0.0035253 198 197 197
0.439185 -0.22737 0.00297735 195 194 194
0.432645 -0.225705 0.0042606 189 187 190
0.424276 -0.221309 0.00411028 184 183 183
0.424453 -0.229263 0.00500202 184 183 183
0.418856 -0.226222 0.00502719 183 182 182
0.417814 -0.231705 0.00508809 179 178 178
0.601085 0.169414 0.00572254 0 112 101
0.536856 -0.150653 -0.000637166 0 112 101
0.430019 -0.190318 0.00846608 0 112 101
0.263849 -0.15966 -0.00327761 0 112 101
0.768915 0.214739 -0.00305928 0 112 101
0.747856 0.0255979 0.00906956 0 112 101
0.688745 0.244871 -0.00956491 0 112 101
0.72811 0.0784366 -0.00879958 0 112 101
0.21759 -0.110924 0.00998847 0 112 101
0.706302 0.0964127 -0.00621638 0 112 101
0.636836 0.19071 -0.00605238 0 112 101
0.535734 0.15067 -0.00280902 0 112 101
0.36386 0.112047 0.00960764 0 112 101
0.215864 -0.175822 -0.00363877 0 112 101
0.53894 -0.0704507 -0.00418896 0 112 101
0.614613 0.0645989 0.00980751 0 112 101
0.61312 -0.252012 0.007653 0 112 101
0.435451 -0.265628 0.00636897 0 112 101
0.299123 -0.0630464 0.00487419 0 112 101
0.412242 0.282847 0.000798931 0 112 101
0.71316 0.160013 0.0019779 0 112 101
0.598454 0.231072 0.00711022 0 112 101
0.452121 0.223103 0.0030485 0 112 101
0.728495 0.182965 0.00757826 0 112 101
0.750029 0.0141686 0.0021884 0 112 101
0.490207 -0.286805 -0.00930787 0 112 101
0.255502 0.110597 -0.00793068 0 112 101
0.365262 0.297729 0.00954293 0 112 101
0.773724 -0.240516 -0.00834362 0 112 101
0.489956 0.085428 -0.00417872 0 112 101
0.475162 -0.224277 0.00393848 0 112 101
0.682526 0.00981221 -0.00165113 0 112 101
0.390262 -0.226651 0.00891399 0 112 101
0.693572 0.195165 -0.0018585 0 112 101
0.444491 0.109094 0.008178 0 112 101
0.680709 0.0155175 0.00709971 0 112 101
0.542963 -0.222223 -0.00850881 0 112 101
0.784494 -0.0142392 0.00836733 0 112 101
0.523952 -0.242846 0.00133502 0 112 101
0.516818 -0.127379 -0.00986552 0 112 101
0.739138 0.0780731 -0.00496029 0 112 101
0.313847 0.120627 0.00938879 0 112 101
0.318004 0.247135 -0.00529557 0 112 101
0.560308 -0.146299 -0.00858264 0 112 101
0.674306 -0.0531428 -0.00608532 0 112 101
0.374148 0.26615 -0.00371836 0 112 101
0.358639 -0.060484 0.000289423 0 112 101
0.561701 0.105122 -0.00164182 0 112 101
0.365457 0.117847 -0.00952638 0 112 101
0.70974 0.186116 0.00184811 0 112 101
0.799531 -0.229872 -0.00939992 0 112 101
0.544384 0.298027 -0.00111769 0 112 101
0.569805 -0.242125 0.00956536 0 112 101
0.294814 -0.126464 0.00525266 0 112 101
0.473801 -0.251194 -0.00566512 0 112 101
0.225414 -0.274224 0.00194689 0 112 101
0.712255 -0.156752 0.00654433 0 112 101
0.70558 0.173059 0.00714747 0 112 101
0.703758 0.0092989 0.00650618 0 112 101
0.728659 -0.257189 0.00112394 0 112 101
0.524089 -0.0150083 0.00413793 0 112 101
0.693393 0.0765572 0.00201061 0 112 101
0.677014 -0.115505 0.000600071 0 112 101
0.514712 0.295641 -0.00363069 0 112 101
0.325682 -0.129319 -0.00841519 0 112 101
0.276303 0.266461 0.00844045 0 112 101
0.722455 0.0343151 -0.004053 0 112 101
0.470011 0.0400831 -0.00164923 0 112 101
0.499559 -0.22761 -0.00428511 0 112 101
0.441293 -0.0551751 -0.00434998 0 112 101
0.469065 0.0860762 -0.00885526 0 112 101
0.24859 -0.279071 -0.00444635 0 112 101
0.715181 0.223364 0.00346884 0 112 101
0.359557 -0.119986 0.00905454 0 112 101
0.302906 -0.212841 -0.00367481 0 112 101
0.316323 -0.160546 -0.000425544 0 112 101
0.716006 0.117248 -0.00412695 0 112 101
0.789243 -0.256952 -0.00653335 0 112 101
0.276389 0.120816 -0.00557069 0 112 101
0.597496 0.127162 0.000103771 0 112 101
0.622923 -0.0717575 -0.00747161 0 112 101
0.326187 0.0363263 -0.00614279 0 112 101
0.779709 0.297015 0.0028635 0 112 101
0.538248 0.132622 -0.00157137 0 112 101
0.593962 0.00275079 0.00765249 0 112 101
0.711759 0.283665 0.00770382 0 112 101
0.440519 -0.120699 -0.00753677 0 112 101
0.630754 -0.299848 0.00386724 0 112 101
0.764673 0.212688 -0.00667755 0 112 101
0.609773 -0.00484508 0.00539523 0 112 101
0.770125 -0.0810709 -0.00382897 0 112 101
0.277665 -0.136011 0.0076238 0 112 101
0.521642 -0.0779118 -0.00472038 0 112 101
0.571224 -0.149273 -0.00365891 0 112 101
0.739254 -0.0268293 -0.00669297 0 112 101
0.774088 -0.234119 -0.00362376 0 112 101
0.515417 -0.0061397 -0.00278615 0 112 101
0.689515 -0.243881 0.00328471 0 112 101
0.292601 0.156764 -0.00515026 0 112 101
0.561013 -0.296096 0.00176864 0 112 101
0.71172 0.142422 -0.00276536 0 112 101
0.621463 -0.0210255 -0.00451899 0 112 101
0.495806 0.147414 0.00571167 0 112 101
0.333802 -0.013767 -0.00762651 0 112 101
0.659988 -0.143976 -0.00251152 0 112 101
0.205569 0.24468 0.00262116 0 112 101
0.441475 -0.29677 -0.00148317 0 112 101
0.277955 0.294948 0.00490193 0 112 101
0.43298 0.0745444 -0.000367707 0 112 101
0.729158 -0.28306 -0.00119885 0 112 101
0.280332 -0.107778 -0.0066988 0 112 101
0.667341 -0.215204 -0.00334688 0 112 101
0.2416 -0.282416 -0.00483404 0 112 101
0.561202 0.0515181 -0.00563291 0 112 101
0.66394 0.170786 0.00667944 0 112 101
0.573295 -0.160791 -0.00938669 0 112 101
0.775862 -0.0629143 7.97001e-05 0 112 101
0.584126 -0.119314 0.0094376 0 112 101
0.689706 -0.0421832 -0.00958494 0 112 101
0.548312 -0.181385 0.00280427 0 112 101
0.55043 0.21346 0.00848004 0 112 101
0.370808 -0.0876834 -0.0051251 0 112 101
0.51033 0.193796 0.00199356 0 112 101
0.370228 0.107266 0.00621539 0 112 101
0.355602 -0.0803169 0.00154614 0 112 101
0.371112 0.0778754 0.00622751 0 112 101
0.476507 -0.0351659 -0.00608235 0 112 101
0.332903 0.191142 0.0015668 0 112 101
0.227273 0.00407785 0.00360578 0 112 101
0.350869 -0.0306608 -0.00115344 0 112 101
0.629875 0.127507 0.00641618 0 112 101
0.357119 0.0641682 -0.00355348 0 112 101
0.330295 0.167961 0.00231084 0 112 101
