ply
format ascii 1.0
comment Created by Open3D
element vertex 1192
property double x
property double y
property double z
property uchar red
property uchar green
property uchar blue
end_header
0.406181 0.14439 -0.00760181 0 112 101
0.39207 0.129739 -0.00494221 0 112 101
0.440902 -0.0791135 -0.00975802 0 112 101
0.635689 -0.0967688 -0.00377715 0 112 101
0.303046 -0.255709 -0.00695259 0 112 101
0.408735 0.107537 0.000164171 0 112 101
0.505775 -0.077249 0.00656006 0 112 101
0.307652 0.213551 -0.00750575 0 112 101
0.692824 -0.248043 0.00203569 0 112 101
0.324285 -0.216859 -0.00905493 0 112 101
0.526291 0.0350694 -0.00905065 0 112 101
0.601627 -0.233958 0.0077816 0 112 101
0.214464 0.0771889 0.00886158 0 112 101
0.292251 0.159756 0.00022913 0 112 101
0.558847 0.228187 0.00824261 0 112 101
0.444877 -0.0374262 0.00419316 0 112 101
0.257115 0.261945 0.00923244 0 112 101
0.671535 0.0863248 -0.0050092 0 112 101
0.440188 -0.026451 0.00413156 0 112 101
0.586507 0.0413419 -0.000506869 0 112 101
0.275486 0.181202 0.00590492 0 112 101
0.628542 0.102636 0.00459346 0 112 101
0.693086 0.255179 0.00384668 0 112 101
0.676448 0.0521084 -0.00503193 0 112 101
0.677782 0.0418111 0.00682663 0 112 101
0.338968 0.249267 -0.00810361 0 112 101
0.265742 -0.0129738 0.00267566 0 112 101
0.27912 -0.0819694 -0.00765343 0 112 101
0.551303 -0.0621017 -0.00924078 0 112 101
0.495772 -0.187507 -0.0049935 0 112 101
0.669451 -0.289956 -0.00702385 0 112 101
0.399522 0.251262 -0.00697052 0 112 101
0.27753 -0.259326 0.00807061 0 112 101
0.288071 -0.0487609 0.00874835 0 112 101
0.564297 0.0887162 0.00023899 0 112 101
0.516956 -0.219618 0.00569232 0 112 101
0.524015 -0.206188 -0.00881725 0 112 101
0.620614 -0.158736 0.00236492 0 112 101
0.345945 -0.160734 0.00115486 0 112 101
0.738824 0.234656 0.00624069 0 112 101
0.543505 -0.0767937 0.000389913 0 112 101
0.271538 -0.111773 -0.00169037 0 112 101
0.457488 0.125621 -0.00967584 0 112 101
0.261607 -0.119271 -0.00896185 0 112 101
0.620014 -0.176251 0.00663951 0 112 101
0.779374 0.187168 0.00198198 0 112 101
0.450828 -0.26128 0.00647118 0 112 101
0.632112 -0.139732 -0.00845834 0 112 101
0.503989 -0.24798 0.00748001 0 112 101
0.483462 -0.233208 -0.00429288 0 112 101
0.326855 -0.262153 0.00474476 0 112 101
0.424539 -0.108101 -0.000375332 0 112 101
0.525754 0.151052 -0.00539147 0 112 101
0.276552 0.122787 0.009832 0 112 101
0.694651 -0.0656121 -0.00168416 0 112 101
0.70885 0.253849 -0.00663009 0 112 101
0.743905 -0.250175 0.00518844 0 112 101
0.63021 0.0991988 0.00717345 0 112 101
0.231013 -0.145639 0.000483443 0 112 101
0.271592 -0.218937 0.00229435 0 112 101
0.565452 -0.0338175 0.000341173 0 112 101
0.334775 -0.0638943 0.000348502 0 112 101
0.461835 0.0741517 0.00850957 0 112 101
0.6691 0.223739 -0.00726405 0 112 101
0.490421 0.195084 -0.00247516 0 112 101
0.282387 0.167412 0.00489128 0 112 101
0.32739 0.250238 -0.0016856 0 112 101
0.758359 -0.275593 0.00620507 0 112 101
0.729564 0.0560321 0.00897196 0 112 101
0.656759 0.125213 0.00648771 0 112 101
0.639328 0.106097 0.00165075 0 112 101
0.750543 0.107106 -0.00289879 0 112 101
0.478647 -0.101829 0.00721515 0 112 101
0.720227 0.0691365 0.00755917 0 112 101
0.287525 0.129428 0.00919672 0 112 101
0.446176 -0.131596 0.00134844 0 112 101
0.671111 -0.218245 0.00666808 0 112 101
0.628043 -0.205012 0.00683654 0 112 101
0.647966 0.1164 -0.00613778 0 112 101
0.75223 -0.0586239 -0.00713964 0 112 101
0.517012 -0.0435979 0.00839032 0 112 101
0.435251 0.198118 -0.00882239 0 112 101
0.316829 -0.124553 0.00341255 0 112 101
0.687774 0.263484 -0.00748224 0 112 101
0.658071 -0.256381 -0.000504336 0 112 101
0.318257 -0.153005 -0.0064651 0 112 101
0.50865 -0.254492 -0.00365368 0 112 101
0.586577 0.142481 -0.00845908 0 112 101
0.60254 -0.0402906 0.00954935 0 112 101
0.756477 0.108878 0.00947367 0 112 101
0.552621 -0.0410533 -0.0077175 0 112 101
0.792636 -0.286654 -0.00176582 0 112 101
0.267323 0.00748721 0.00143426 0 112 101
0.236943 0.091431 -0.00287447 0 112 101
0.689239 -0.120133 -0.00822595 0 112 101
0.741127 0.018673 -0.00268093 0 112 101
0.311212 -0.283575 -0.00751722 0 112 101
0.324916 0.0235498 0.00736451 0 112 101
0.690979 0.283418 0.00919962 0 112 101
0.529008 0.128184 0.00930899 0 112 101
0.533503 -0.0736159 -0.00810578 0 112 101
0.541046 -0.148606 0.00777931 0 112 101
0.6106 0.0657751 -0.00662686 0 112 101
0.661089 -0.0573309 0.00112412 0 112 101
0.285087 0.105712 -0.00433711 0 112 101
0.730861 0.257233 1.07357e-05 0 112 101
0.574387 -0.0103447 -0.00364994 0 112 101
0.756398 0.020056 0.00549852 0 112 101
0.327845 0.23116 -0.00816344 0 112 101
0.337255 -0.144953 -0.00867187 0 112 101
0.411429 0.263917 -0.00847803 0 112 101
0.415949 0.170169 -0.00743627 0 112 101
0.653437 0.140415 0.0089328 0 112 101
0.351971 -0.27674 -0.00693716 0 112 101
0.586649 0.0317131 0.00575394 0 112 101
0.421021 -0.142685 -0.00934059 0 112 101
0.445053 -0.0698811 0.00349918 0 112 101
0.705945 0.23303 -0.00931805 0 112 101
0.752066 0.0728055 -0.00935652 0 112 101
0.494062 0.0546648 0.00255905 0 112 101
0.300197 0.0767723 0.00952393 0 112 101
0.47393 -0.0558026 0.000147935 0 112 101
0.636677 0.00752606 -0.00174706 0 112 101
0.760073 0.159006 0.00968529 0 112 101
0.582037 -0.275724 -0.00175619 0 112 101
0.212251 -0.290089 0.0054801 0 112 101
0.403814 -0.101663 -0.00472087 0 112 101
0.279644 -0.0475002 -0.00380002 0 112 101
0.782833 0.232751 0.00947946 0 112 101
0.347735 0.185655 -0.00419692 0 112 101
0.727603 0.0755128 -0.000549103 0 112 101
0.302611 -0.0475191 -0.00608338 0 112 101
0.469104 0.00713601 0.0073488 0 112 101
0.248113 0.256982 0.00774584 0 112 101
0.729786 0.0711049 -0.00622568 0 112 101
0.602529 0.0325291 -0.00908834 0 112 101
0.582364 -0.185726 0.00955068 0 112 101
0.326106 -0.150502 -0.000274992 0 112 101
0.668356 -0.268843 0.00182468 0 112 101
0.444446 -0.291005 0.00118286 0 112 101
0.318334 0.0638917 -0.00834167 0 112 101
0.50279 0.246737 -0.00961682 0 112 101
0.234802 0.192948 0.00400332 0 112 101
0.233955 -0.100604 0.00483364 0 112 101
0.736438 -0.0789044 -0.00170079 0 112 101
0.419277 -0.228811 -0.00039457 0 112 101
0.322415 -0.243229 -0.00171908 0 112 101
0.623941 -0.0909698 -0.00278151 0 112 101
0.357793 -0.190708 -0.00974005 0 112 101
0.595021 0.150462 -0.00379574 0 112 101
0.69838 -0.189529 -0.00307506 0 112 101
0.425948 0.237375 -0.00149375 0 112 101
0.359697 -0.258615 -0.00531384 0 112 101
0.615231 -0.0536541 -0.00569172 0 112 101
0.46658 0.228251 0.00368693 0 112 101
0.625884 0.0734002 -0.00868945 0 112 101
0.72573 -0.149028 0.00790169 0 112 101
0.507843 0.268979 0.000411279 0 112 101
0.301565 -0.038906 0.00992685 0 112 101
0.613385 -0.272362 0.000533231 0 112 101
0.289671 -0.258591 -0.00585417 0 112 101
0.765997 0.269756 0.00652213 0 112 101
0.262642 -0.200801 0.00282438 0 112 101
0.546468 0.129936 -0.00773244 0 112 101
0.764299 -0.0813492 0.00886938 0 112 101
0.677785 -0.0426461 -0.00411184 0 112 101
0.347693 -0.121624 0.00679327 0 112 101
0.276713 0.274449 -0.00467452 0 112 101
0.438121 0.22735 -0.0045319 0 112 101
0.715511 0.160177 0.00933695 0 112 101
0.637323 0.0110704 0.00483322 0 112 101
0.621838 0.243863 0.00970952 0 112 101
0.500777 0.205572 0.00191293 0 112 101
0.481029 0.0234203 -0.00397283 0 112 101
0.558172 -0.00903691 -0.00510016 0 112 101
0.344366 0.0110362 -0.0036512 0 112 101
0.562523 0.0932757 0.0010652 0 112 101
0.343447 -0.251625 0.00844341 0 112 101
0.717723 0.11145 0.00786894 0 112 101
0.654331 -0.148678 -0.00445238 0 112 101
0.299514 -0.047971 -0.00718895 0 112 101
0.673346 0.18552 0.00138881 0 112 101
0.638789 0.272343 -0.00365683 0 112 101
0.551681 -0.299588 0.000556859 0 112 101
0.739833 -0.20797 0.00954347 0 112 101
0.604044 0.0131253 -0.00931717 0 112 101
0.579218 -0.0205962 -0.0034375 0 112 101
0.298045 -0.0774624 -0.00712476 0 112 101
0.453509 0.0964494 -0.00279905 0 112 101
0.388458 -0.237387 -0.0067747 0 112 101
0.413715 -0.177524 -0.0017234 0 112 101
0.548608 0.230434 -0.00236006 0 112 101
0.354013 0.0197497 0.00778145 0 112 101
0.51013 0.12738 0.00121241 0 112 101
0.474325 -0.232846 -0.00175121 0 112 101
0.737017 0.0705828 0.00472629 0 112 101
0.678081 0.150117 0.00662537 0 112 101
0.648209 -0.0808096 -0.00347127 0 112 101
0.536734 0.0262575 0.00310818 0 112 101
0.511897 -0.164876 -0.00871896 0 112 101
0.256814 -0.214043 -0.00343714 0 112 101
0.737651 -0.275665 -0.00799924 0 112 101
0.672204 0.262232 -0.00318584 0 112 101
0.448292 -0.239718 -0.00342627 0 112 101
0.438713 0.0507911 0.0038377 0 112 101
0.215065 0.200868 0.00290206 0 112 101
0.54809 -0.198811 0.000501447 0 112 101
0.34715 0.262121 0.00133382 0 112 101
0.377595 0.278818 0.00388745 0 112 101
0.674238 0.0214393 -0.000871207 0 112 101
0.303877 0.260228 -0.00654285 0 112 101
0.758399 -0.228811 0.00708445 0 112 101
0.481032 0.168555 -0.00765841 0 112 101
0.779924 -0.222146 0.00181265 0 112 101
0.704081 0.282651 -0.00495815 0 112 101
0.705818 0.20798 0.00525208 0 112 101
0.39065 0.216208 -0.00662558 0 112 101
0.333864 0.163742 0.00676171 0 112 101
0.76737 0.121923 -0.00333281 0 112 101
0.623577 0.242648 -0.00389813 0 112 101
0.429287 -0.0466842 -0.00635905 0 112 101
0.487595 0.0399925 -0.00317621 0 112 101
0.378426 0.213146 0.00356588 0 112 101
0.573451 -0.278871 0.0095347 0 112 101
0.247762 -0.16167 -0.0056647 0 112 101
0.759856 0.165773 -0.00431245 0 112 101
0.495842 -0.265397 0.00787852 0 112 101
0.427765 -0.132237 0.00226817 0 112 101
0.594224 0.165192 -0.00583131 0 112 101
0.685878 0.162143 0.00799443 0 112 101
0.772961 0.2013 -0.000937994 0 112 101
0.360016 0.0172981 -0.00409431 0 112 101
0.551014 -0.0950266 0.00342538 0 112 101
0.652513 0.0414873 -0.00505014 0 112 101
0.35735 0.0711029 -0.00226647 0 112 101
0.401537 -0.267001 -0.00940137 0 112 101
0.634607 -0.0301473 0.0038902 0 112 101
0.20739 -0.273381 0.00977194 0 112 101
0.469576 0.255966 -0.000212846 0 112 101
0.367876 -0.299495 0.00454426 0 112 101
0.672929 -0.176294 0.00774928 0 112 101
0.251045 -0.118752 0.00742321 0 112 101
0.636535 0.0788433 0.00443727 0 112 101
0.664786 0.204064 0.00782852 0 112 101
0.625565 0.204862 0.00997155 0 112 101
0.267594 0.0334938 0.00135652 0 112 101
0.433523 -0.00906929 -0.00735123 0 112 101
0.59174 -0.0711 0.00700407 0 112 101
0.602038 0.234311 0.00173098 0 112 101
0.310442 0.118 0.00691804 0 112 101
0.693989 -0.11268 0.0011893 0 112 101
0.412497 -0.162473 0.000598 0 112 101
0.471474 0.0170454 0.00473905 0 112 101
0.20362 0.0226208 0.00979026 0 112 101
0.675322 0.268753 -0.00378154 0 112 101
0.77646 -0.194766 -0.00967454 0 112 101
0.470117 -0.28497 0.00914779 0 112 101
0.532235 -0.017273 0.00892223 0 112 101
0.680598 0.206346 0.00441911 0 112 101
0.484959 -0.0917684 0.000230075 0 112 101
0.334039 0.146216 0.0076219 0 112 101
0.338533 -0.0417162 -0.0088605 0 112 101
0.489649 0.0695408 0.00892933 0 112 101
0.47361 0.265509 -0.00657581 0 112 101
0.233766 0.141157 0.00571756 0 112 101
0.598747 0.0711513 0.00656827 0 112 101
0.607977 0.08482 -0.00458358 0 112 101
0.411751 0.023264 -0.00540779 0 112 101
0.625182 0.0249021 0.000935226 0 112 101
0.263761 0.110978 0.00388242 0 112 101
0.32646 0.215208 0.00998612 0 112 101
0.439385 0.14664 -0.00411075 0 112 101
0.291704 0.151558 -0.00761339 0 112 101
0.753197 -0.206906 0.00773807 0 112 101
0.538859 0.0525553 0.00351261 0 112 101
0.206654 -0.107943 -0.00207439 0 112 101
0.770794 -0.176921 -0.00610314 0 112 101
0.76579 -0.195341 -0.00899309 0 112 101
0.413851 0.0542113 0.00143096 0 112 101
0.536179 0.0166245 -0.00778407 0 112 101
0.434402 0.271087 -0.00780406 0 112 101
0.477329 0.14723 -0.00284927 0 112 101
0.560041 -0.0393991 -0.00676161 0 112 101
0.584465 -0.121955 0.00733859 0 112 101
0.716408 0.117631 -0.00247339 0 112 101
0.2452 -0.237599 0.00421708 0 112 101
0.435292 -0.0305744 0.00349192 0 112 101
0.685746 -0.0329342 0.00331979 0 112 101
0.624471 0.125105 -0.00129656 0 112 101
0.201663 -0.159789 0.00268692 0 112 101
0.732342 -0.17567 -0.00450383 0 112 101
0.261625 -0.129728 -0.00992197 0 112 101
0.725039 0.199554 0.000859411 0 112 101
0.363831 0.139398 0.0024544 0 112 101
0.267658 -0.155596 -0.00578051 0 112 101
0.445251 0.0453104 0.00890708 0 112 101
0.209845 -0.285241 -0.00217062 0 112 101
0.63761 0.0827955 -0.00605659 0 112 101
0.338869 0.188394 0.00126631 0 112 101
0.721889 0.263897 -0.0014876 0 112 101
0.64397 0.260123 -0.00754164 0 112 101
0.616715 -0.109475 -0.00692094 0 112 101
0.593429 -0.0527725 -0.00339849 0 112 101
0.402956 -0.134696 0.00643483 0 112 101
0.338613 0.151285 0.00616899 0 112 101
0.774919 0.248312 -0.000386277 0 112 101
0.403879 -0.151615 -0.00571174 0 112 101
0.339566 -0.210007 -0.00248632 0 112 101
0.757212 -0.0668597 -0.00107806 0 112 101
0.243832 0.22568 0.00666738 0 112 101
0.398649 0.241662 0.00681612 0 112 101
0.428776 0.121479 0.00538149 0 112 101
0.408934 -0.131617 0.00562084 0 112 101
0.21887 -0.189741 -0.0086484 0 112 101
0.388557 0.146651 0.00592949 0 112 101
0.332841 -0.289714 0.0097425 0 112 101
0.442449 -0.140874 0.00478956 0 112 101
0.262949 0.0233608 -0.00626539 0 112 101
0.732587 -0.136422 0.00924172 0 112 101
0.797986 -0.134792 0.0088824 0 112 101
0.28894 -0.0317346 -0.0071482 0 112 101
0.656352 -0.19327 0.00296871 0 112 101
0.408624 0.0346322 0.00508176 0 112 101
0.779911 -0.0124235 -0.00694151 0 112 101
0.403119 -0.0378748 -0.00832745 0 112 101
0.577974 -0.0731265 0.00983699 0 112 101
0.371784 -0.0642525 6.0501e-05 0 112 101
0.203209 0.264641 -0.000855889 0 112 101
0.749913 0.114526 -0.00195407 0 112 101
0.674222 -0.103136 0.00802993 0 112 101
0.363548 -0.0934997 -0.00652707 0 112 101
0.246809 -0.199514 -0.009598 0 112 101
0.286444 -0.186974 0.00625883 0 112 101
0.580793 -0.0914692 0.00235797 0 112 101
0.668645 0.0979373 0.00450283 0 112 101
0.526996 -0.000117219 -0.00247435 0 112 101
0.23188 0.084517 0.000927785 0 112 101
0.337022 -0.272915 0.000704712 0 112 101
0.384557 -0.166486 0.00981232 0 112 101
0.659859 -0.120218 -0.00961466 0 112 101
0.57141 -0.0345185 0.00805614 0 112 101
0.632741 -0.182933 -0.00253436 0 112 101
0.273902 -0.0394906 -0.00953234 0 112 101
0.776508 0.241176 0.00986685 0 112 101
0.249422 0.0847189 -0.00447719 0 112 101
0.319485 -0.10491 0.00870351 0 112 101
0.78017 -0.055906 0.00562641 0 112 101
0.780705 -0.244293 -0.00265184 0 112 101
0.291552 -0.0838842 -0.00210099 0 112 101
0.709383 0.0326392 0.00784858 0 112 101
0.697305 0.129535 -0.00983644 0 112 101
0.399994 -0.0382745 -0.0019239 0 112 101
0.53507 -0.171671 0.00420369 0 112 101
0.209576 0.243065 0.00334254 0 112 101
0.323384 -0.109388 -0.00928215 0 112 101
0.388249 0.0535159 -0.00611306 0 112 101
0.378427 0.292761 0.00220419 0 112 101
0.412306 -0.150034 0.00734896 0 112 101
0.520292 -0.184867 -0.00422736 0 112 101
0.778886 -0.14915 -0.00439369 0 112 101
0.398214 0.0383475 -0.00984754 0 112 101
0.306783 0.257268 0.00345755 0 112 101
0.532392 0.11729 -0.0012291 0 112 101
0.201972 0.077879 0.00824843 0 112 101
0.216521 -0.0177306 0.00313699 0 112 101
0.556257 -0.155724 -0.00200587 0 112 101
0.345705 0.191501 0.00616113 0 112 101
0.452889 -0.0723187 -0.00333088 0 112 101
0.76092 0.172281 0.00441703 0 112 101
0.521193 0.140504 -0.00354222 0 112 101
0.245887 -0.124239 0.00526012 0 112 101
0.242498 0.075204 0.002795 0 112 101
0.380165 -0.251471 0.00241913 0 112 101
0.768431 0.129051 0.00712417 0 112 101
0.43648 0.0832971 0.00872902 0 112 101
0.368255 -0.0906818 -0.00763712 0 112 101
0.511339 0.0598631 0.00252207 0 112 101
0.581501 0.2778 -0.005885 0 112 101
0.225079 0.238162 -0.00303818 0 112 101
0.582852 0.209587 0.00580402 0 112 101
0.339106 -0.0251971 -0.00625682 0 112 101
0.357757 -0.059064 -0.00964304 0 112 101
0.634128 0.196902 0.0037932 0 112 101
0.650592 0.0465656 -0.00947143 0 112 101
0.360331 -0.0224867 0.000307325 0 112 101
0.55045 -0.0975656 0.0071248 0 112 101
0.444588 0.268943 -0.00319666 0 112 101
0.306781 0.290388 -0.0027555 0 112 101
0.728306 -0.212814 0.00599905 0 112 101
0.60754 0.123299 -0.00536591 0 112 101
0.439835 0.114368 0.00863613 0 112 101
0.484989 0.0377439 -0.0021351 0 112 101
0.363942 0.183521 0.00703504 0 112 101
0.753566 0.284345 0.000837877 0 112 101
0.382529 -0.0413071 -0.00747981 0 112 101
0.437226 -0.0683355 -0.00626178 0 112 101
0.609768 0.212179 -0.00721129 0 112 101
0.638051 0.019435 -0.00280858 0 112 101
0.693416 -0.130737 0.0025119 0 112 101
0.343052 -0.0588033 0.00365862 0 112 101
0.542863 0.0722383 -0.00607236 0 112 101
0.359052 -0.250186 -0.00284545 0 112 101
0.770061 0.0962713 -0.00173126 0 112 101
0.650721 0.0155976 -0.00886412 0 112 101
0.35787 -0.0265548 -0.00601574 0 112 101
0.425264 -0.0727665 0.00149458 0 112 101
0.489603 -0.0120364 -0.00810339 0 112 101
0.454715 -0.18232 0.00100491 0 112 101
0.401613 -0.262446 -0.00696882 0 112 101
0.232408 -0.298457 0.00494439 0 112 101
0.741784 0.176341 -0.00506261 0 112 101
0.779008 -0.236242 -0.000377474 0 112 101
0.737423 0.188283 -0.00705014 0 112 101
0.743128 -0.246234 0.000539726 0 112 101
0.353408 -0.134902 -0.00499577 0 112 101
0.436991 0.296267 0.00412585 0 112 101
0.634293 0.248471 0.00745555 0 112 101
0.46948 -0.239524 0.00522902 0 112 101
0.635236 -0.282785 0.00202892 0 112 101
0.436236 -0.0495645 0.00184015 0 112 101
0.508578 -0.0531214 -0.00285616 0 112 101
0.72497 -0.031818 -0.00343541 0 112 101
0.64324 -0.168513 0.00671268 0 112 101
0.771901 -0.1229 -0.0045312 0 112 101
0.209127 -0.103127 0.00603976 0 112 101
0.505737 0.087691 0.000792955 0 112 101
0.659914 -0.00158049 -0.00438193 0 112 101
0.219598 -0.279915 -0.000879984 0 112 101
0.444364 0.193179 -0.00945077 0 112 101
0.257464 -0.0774459 0.0075914 0 112 101
0.43232 -0.261224 0.0062774 0 112 101
0.343688 -0.0241811 0.00549749 0 112 101
0.232997 0.177221 0.00867327 0 112 101
0.389858 -0.019687 0.00517962 0 112 101
0.321286 0.240494 -0.00210524 0 112 101
0.540095 -0.101117 -0.00782692 0 112 101
0.482151 0.0872514 -0.000694888 0 112 101
0.634795 0.219738 -0.000535624 0 112 101
0.559433 0.229524 0.000278804 0 112 101
0.354006 -0.00608504 -0.00219535 0 112 101
0.236042 -0.0575611 -0.00160016 0 112 101
0.721799 0.269745 0.000230446 0 112 101
0.334481 -0.170656 0.00665882 0 112 101
0.372737 0.125805 -0.006233 0 112 101
0.657141 0.179952 -0.00601664 0 112 101
0.423695 0.279256 -0.000780574 0 112 101
0.30963 -0.167854 0.00860215 0 112 101
0.502015 -0.0362333 0.00712721 0 112 101
0.612132 -0.247202 0.0019017 0 112 101
0.485637 0.233174 -0.00832399 0 112 101
0.696858 -0.277737 -0.000681 0 112 101
0.485756 -0.251936 0.00299261 0 112 101
0.650851 -0.0835292 0.000482298 0 112 101
0.256802 -0.0851563 -0.0032554 0 112 101
0.759154 0.211814 0.00943051 0 112 101
0.236004 0.282576 0.00936178 0 112 101
0.385706 0.166193 -0.00980616 0 112 101
0.77008 0.244873 -0.00212423 0 112 101
0.624067 -0.268238 -0.00477164 0 112 101
0.78735 -0.159047 -0.00834153 0 112 101
0.212032 0.141145 0.0085696 0 112 101
0.390019 0.108971 -0.00103176 0 112 101
0.264724 -0.0723062 0.000225387 0 112 101
0.354773 0.143869 -0.00937346 0 112 101
0.736923 -0.197748 -0.00962313 0 112 101
0.24573 -0.294922 0.00986511 0 112 101
0.663221 -0.189782 0.00348885 0 112 101
0.257566 -0.00520322 0.00460641 0 112 101
0.21269 0.0206346 -0.000181237 0 112 101
0.277256 0.162232 -0.005454 0 112 101
0.623205 -0.0579466 0.0018189 0 112 101
0.490863 0.244834 -0.0053723 0 112 101
0.355081 0.201307 0.00804108 0 112 101
0.206622 -0.236564 0.00543923 0 112 101
0.695635 -0.184666 0.0033816 0 112 101
0.469905 -0.291489 -0.00431273 0 112 101
0.79203 -0.115967 0.00166752 0 112 101
0.780528 -0.134671 -0.00953733 0 112 101
0.425998 0.139619 0.00769336 0 112 101
0.428204 0.176831 0.00587408 0 112 101
0.33177 0.0449044 0.00622043 0 112 101
0.774929 0.21346 0.00228299 0 112 101
0.305754 0.232194 -0.00577505 0 112 101
0.708667 0.235388 0.00629487 0 112 101
0.601721 -0.0245876 -0.0063732 0 112 101
0.53353 -0.182762 -0.00183806 0 112 101
0.673399 0.254061 -0.00946135 0 112 101
0.27746 0.195454 -0.00475757 0 112 101
0.294194 0.0418134 -0.0017796 0 112 101
0.532085 0.0943849 0.00536731 0 112 101
0.647352 -0.0423108 0.0038294 0 112 101
0.716886 -0.277365 0.00815642 0 112 101
0.663265 0.0156873 -0.00856531 0 112 101
0.42361 0.0796938 -0.0017245 0 112 101
0.790542 -0.137308 -0.00963493 0 112 101
0.35015 -0.088829 -0.00113572 0 112 101
0.773331 0.270714 -0.00637039 0 112 101
0.295311 -0.271686 -0.00560419 0 112 101
0.694989 -0.0473305 0.00978388 0 112 101
0.388782 0.134796 0.00856842 0 112 101
0.321769 -0.183869 0.00655261 0 112 101
0.234618 0.25456 0.00445449 0 112 101
0.721014 0.08745 0.00728664 0 112 101
0.732353 -0.114527 -0.00291931 0 112 101
0.445717 0.207408 -0.00293391 0 112 101
0.349813 0.262428 -0.00742949 0 112 101
0.429436 -0.241124 0.00584419 0 112 101
0.59389 0.212517 0.00849749 0 112 101
0.207263 -0.226829 0.0094441 0 112 101
0.4654 0.22231 0.00606292 0 112 101
0.340564 0.233187 -0.00679496 0 112 101
0.578115 -0.0953021 0.00539254 0 112 101
0.247917 -0.0838151 -0.00016821 0 112 101
0.594563 -0.281933 -0.00355359 0 112 101
0.267689 0.0562804 -0.00372663 0 112 101
0.639412 0.0222073 -0.00626223 0 112 101
0.235413 -0.0410121 0.00444775 0 112 101
0.675068 0.0836037 0.00462132 0 112 101
0.488972 0.0588863 -0.00315558 0 112 101
0.664835 -0.0880021 -0.00159543 0 112 101
0.500869 -0.2486 -0.00276596 0 112 101
0.703205 0.149793 -0.00668777 0 112 101
0.575119 -0.224795 -0.00669387 0 112 101
0.557042 0.0067988 -0.0097763 0 112 101
0.374514 0.254512 -0.00452712 0 112 101
0.287587 0.0902071 -0.00712762 0 112 101
0.548963 -0.2687 -0.00195132 0 112 101
0.531609 -0.26293 -0.00625345 0 112 101
0.656424 -0.243532 0.00347254 0 112 101
0.429208 -0.287153 0.00106073 0 112 101
0.717901 0.0266729 -0.00328263 0 112 101
0.391769 -0.185551 0.00426141 0 112 101
0.768278 -0.207871 0.00441926 0 112 101
0.41987 -0.143802 -0.00284652 0 112 101
0.348407 -0.0937666 -0.00112205 0 112 101
0.530057 0.106988 0.00195375 0 112 101
0.63196 0.264693 -0.00586382 0 112 101
0.593216 -0.136168 -0.00883838 0 112 101
0.207368 0.0664137 0.00250101 0 112 101
0.580704 -0.16901 0.00749901 0 112 101
0.726017 -0.051643 -0.00949429 0 112 101
0.520663 -0.0530748 0.00353264 0 112 101
0.403331 0.201149 -0.00407975 0 112 101
0.414132 -0.130389 0.00144043 0 112 101
0.366466 -0.193729 0.00438144 0 112 101
0.538849 -0.0382472 -0.0017651 0 112 101
0.272372 0.0248483 -0.00874965 0 112 101
0.411714 -0.0978972 1.41593e-06 0 112 101
0.374374 0.173035 -0.00884202 0 112 101
0.510234 0.239398 -1.48868e-05 0 112 101
0.548173 0.252811 -0.00479858 0 112 101
0.658706 0.278245 4.0191e-05 0 112 101
0.404554 0.264321 0.00833507 0 112 101
0.574897 0.0576841 -0.00365267 0 112 101
0.401797 0.284761 -0.00665399 0 112 101
0.337029 0.227012 0.00958168 0 112 101
0.543181 0.0807031 0.000965453 0 112 101
0.798702 0.26039 -0.00960726 0 112 101
0.366183 -0.113724 -0.00944487 0 112 101
0.783667 -0.250551 -0.00519089 0 112 101
0.437216 0.00433205 -0.00740621 0 112 101
0.205478 -0.140231 0.00908161 0 112 101
0.709844 0.291516 -0.00568123 0 112 101
0.396675 -0.236092 0.00896835 0 112 101
0.417607 -0.216837 0.00993853 0 112 101
0.376581 0.0496214 0.00545353 0 112 101
0.541829 -0.279648 0.000177276 0 112 101
0.254693 -0.105103 -0.00068898 0 112 101
0.361322 0.121924 -0.00878141 0 112 101
0.277223 0.288316 -0.00639708 0 112 101
0.445912 0.00707542 0.00953213 0 112 101
0.503694 0.175519 0.00790666 0 112 101
0.285524 0.277804 -0.000794517 0 112 101
0.326803 -0.221507 0.00311687 0 112 101
0.206712 -0.158678 -0.00371245 0 112 101
0.429698 0.19145 0.00121791 0 112 101
0.595966 -0.281274 -0.00191502 0 112 101
0.254151 -0.0508117 -0.00755694 0 112 101
0.776397 -0.11068 0.00608238 0 112 101
0.377186 -0.0724446 -0.00880938 0 112 101
0.585277 0.141826 -0.00718432 0 112 101
0.595047 -0.00785351 -0.00169678 0 112 101
0.426955 0.0677583 0.00322685 0 112 101
0.631653 0.123695 -0.0062792 0 112 101
0.580591 -0.174661 0.00105403 0 112 101
0.232607 -0.032193 -0.000215508 0 112 101
0.287441 0.118387 -0.00849293 0 112 101
0.473606 0.29746 -0.00581013 0 112 101
0.218744 0.0990208 0.00747821 0 112 101
0.680981 -0.0511497 -0.00127124 0 112 101
0.378727 -0.105049 0.00402434 0 112 101
0.249561 0.151718 0.00496695 0 112 101
0.621984 -0.126691 -0.00283262 0 112 101
0.223907 -0.179271 -0.00185646 0 112 101
0.594135 0.0251207 -0.00768716 0 112 101
0.621273 -0.244427 0.000169288 0 112 101
0.42896 -0.283125 0.00610165 0 112 101
0.661828 -0.247958 0.00704212 0 112 101
0.5749 -0.229188 0.00616458 0 112 101
0.617554 0.208735 -0.00494082 0 112 101
0.227748 -0.197668 -0.0018305 0 112 101
0.732096 0.0174823 -0.00319315 0 112 101
0.205747 0.0989835 -0.00174572 0 112 101
0.757358 -0.00243419 0.00525627 0 112 101
0.352197 0.0989864 -0.00842821 0 112 101
0.427795 0.0828766 0.00568101 0 112 101
0.231769 -0.0232804 -0.00933608 0 112 101
0.558537 -0.00358677 4.84837e-05 0 112 101
0.312207 0.150888 0.00249478 0 112 101
0.487022 -0.065735 -0.00825285 0 112 101
0.746903 -0.0980978 -0.00422896 0 112 101
0.368821 -0.168017 -0.00628599 0 112 101
0.294771 0.145991 0.00322459 0 112 101
0.272381 0.164002 0.00804627 0 112 101
0.240924 0.21563 -0.0078 0 112 101
0.771204 -0.0357891 0.00292204 0 112 101
0.359493 0.160499 0.00748851 0 112 101
0.221269 -0.128333 0.00246149 0 112 101
0.520923 -0.229373 0.00134667 0 112 101
0.631051 0.021294 0.00776855 0 112 101
0.646344 -0.109137 0.00289544 0 112 101
0.267747 0.056704 0.00957292 0 112 101
0.20005 0.272642 -0.00822703 0 112 101
0.439492 -0.215602 0.00453833 0 112 101
0.538017 0.00378297 0.00579759 0 112 101
0.495779 0.022499 -0.00935359 0 112 101
0.799944 0.0280067 -0.00260253 0 112 101
0.464929 0.125006 0.00854344 0 112 101
0.578807 -0.209519 -0.00689433 0 112 101
0.372677 -0.271418 -0.000838412 0 112 101
0.595571 -0.261645 -0.00290542 0 112 101
0.366375 -0.0750197 -0.00692917 0 112 101
0.585854 0.138027 -0.003097 0 112 101
0.765309 -0.0311594 0.00291077 0 112 101
0.560703 0.0519617 -0.00700443 0 112 101
0.697733 -0.19389 0.00777525 0 112 101
0.335158 -0.0602978 -0.000715597 0 112 101
0.54553 0.0118967 -0.00805852 0 112 101
0.711252 -0.2428 -0.00890379 0 112 101
0.667074 0.145364 0.00143005 0 112 101
0.439216 -0.246893 0.00726226 0 112 101
0.252669 0.0309046 -0.00304031 0 112 101
0.342281 0.0221366 0.0072079 0 112 101
0.614875 0.252935 -0.00210681 0 112 101
0.211306 -0.0986907 -0.000364423 0 112 101
0.348567 -0.110339 -0.00346979 0 112 101
0.317091 -0.18999 -0.00763376 0 112 101
0.460356 -0.0741247 0.00751642 0 112 101
0.345345 0.258474 -0.00521114 0 112 101
0.50629 0.0650633 0.00825033 0 112 101
0.502356 -0.0368934 -0.007018 0 112 101
0.42787 -0.115758 0.00509276 0 112 101
0.593113 -0.0520952 -0.00478927 0 112 101
0.74937 -0.0712272 -0.00483871 0 112 101
0.227037 -0.156752 0.0030109 0 112 101
0.42289 -0.0181107 -0.00655087 0 112 101
0.642999 -0.0683855 0.00329994 0 112 101
0.213876 0.10514 -0.00722814 0 112 101
0.216327 -0.106081 0.00333802 0 112 101
0.586196 -0.0717825 -0.00758036 0 112 101
0.306435 -0.0313608 -0.0051659 0 112 101
0.594621 -0.169438 -0.00849693 0 112 101
0.499922 -0.205091 -0.00397388 0 112 101
0.670668 -0.0841432 -0.00165913 0 112 101
0.215074 -0.0343385 -0.00859558 0 112 101
0.392528 -0.228039 0.00586865 0 112 101
0.394239 0.120322 0.00919858 0 112 101
0.266439 -0.190625 -0.00268812 0 112 101
0.433991 0.228366 -0.0059426 0 112 101
0.65261 -0.138146 0.00443848 0 112 101
0.710757 0.214509 0.00978604 0 112 101
0.483201 -0.256982 0.00341551 0 112 101
0.559724 0.154316 -0.00464694 0 112 101
0.257242 0.22549 -0.00944924 0 112 101
0.321812 -0.0663478 -0.00389071 0 112 101
0.377809 -0.0591333 0.00962408 0 112 101
0.770089 0.106323 -0.00175333 0 112 101
0.491869 -0.0928913 0.00916296 0 112 101
0.726145 0.26575 0.00282602 0 112 101
0.765113 -0.0534567 -0.00615971 0 112 101
0.52774 -0.0107285 0.0053117 0 112 101
0.741074 -0.0497997 0.0027205 0 112 101
0.495571 -0.0466435 -0.00670544 0 112 101
0.485286 0.0743489 -0.00348926 0 112 101
0.476666 -0.0867924 0.00059427 0 112 101
0.237005 -0.28527 0.00920519 0 112 101
0.250943 0.148524 -0.0034948 0 112 101
0.446905 0.263794 -0.00834596 0 112 101
0.573869 0.204269 0.00487119 0 112 101
0.798842 0.193175 0.00297157 0 112 101
0.282086 0.0772772 -0.000675194 0 112 101
0.642595 -0.0677633 -0.000485246 0 112 101
0.332591 0.085047 0.00819232 0 112 101
0.677656 -0.00694787 0.000133635 0 112 101
0.387126 0.266388 0.00276866 0 112 101
0.243085 -0.259206 0.00306331 0 112 101
0.430629 0.248964 0.00172481 0 112 101
0.260387 0.0440326 0.00164632 0 112 101
0.522473 0.106432 -0.00012864 0 112 101
0.220204 0.146987 0.000125219 0 112 101
0.627695 -0.282771 -0.00636905 0 112 101
0.54353 0.0225836 -0.0026819 0 112 101
0.388448 -0.0662529 0.00843482 0 112 101
0.726346 0.204893 0.000631681 0 112 101
0.563242 0.0539645 -0.0095987 0 112 101
0.682159 0.0534201 -0.00807413 0 112 101
0.26846 0.290114 -0.00822449 0 112 101
0.743058 -0.0499 0.0081116 0 112 101
0.626858 0.218037 0.00405846 0 112 101
0.42943 -0.250682 0.00507479 0 112 101
0.279588 0.294367 -0.00329746 0 112 101
0.71953 -0.0852523 -0.00325067 0 112 101
0.381877 0.0423218 0.00726828 0 112 101
0.779892 -0.0879874 0.00867117 0 112 101
0.347731 0.210908 0.00620208 0 112 101
0.536349 -0.263115 -0.00562758 0 112 101
0.379526 0.0210211 0.0084937 0 112 101
0.326457 0.232541 -0.000938258 0 112 101
0.322752 -0.136307 -0.00963302 0 112 101
0.405015 0.0918584 -0.00289877 0 112 101
0.290253 0.0741114 -0.00988232 0 112 101
0.641746 0.239739 -0.00118335 0 112 101
0.662899 -0.0794643 0.00878655 0 112 101
0.431392 0.263265 0.00143133 0 112 101
0.527406 0.178547 0.00292149 0 112 101
0.556454 -0.121722 -0.00504674 0 112 101
0.425711 -0.158651 0.00545821 0 112 101
0.330493 -0.0923728 -0.00865359 0 112 101
0.763246 0.106318 -0.00808303 0 112 101
0.469251 -0.236109 0.00896762 0 112 101
0.567468 -0.273656 0.00467576 0 112 101
0.260406 0.270415 -0.00604948 0 112 101
0.568706 0.225228 -0.00803469 0 112 101
0.797446 -0.0787631 0.000932233 0 112 101
0.307634 0.25663 -0.000166094 0 112 101
0.762338 -0.194273 0.00302617 0 112 101
0.624123 -0.094729 0.00807152 0 112 101
0.571591 -0.188472 0.00375153 0 112 101
0.356757 0.214445 0.00128415 0 112 101
0.661038 0.0946372 -0.00397235 0 112 101
0.537832 -0.0386664 -0.00115751 0 112 101
0.452155 0.232026 -0.00715059 0 112 101
0.438399 -0.255906 0.00136858 0 112 101
0.46159 0.197365 -0.00767991 0 112 101
0.51025 -0.0333146 0.00281661 0 112 101
0.688777 -0.0112619 0.00467224 0 112 101
0.35103 -0.175612 0.00143321 0 112 101
0.774278 -0.11805 -0.00931492 0 112 101
0.654413 -0.197333 -0.00492647 0 112 101
0.429466 0.183963 0.00518175 0 112 101
0.336363 -0.0546536 0.00129308 0 112 101
0.284797 -0.256974 0.00603572 0 112 101
0.648363 0.0291251 -0.00847965 0 112 101
0.29639 0.118499 0.00219106 0 112 101
0.25826 0.174355 0.00682552 0 112 101
0.315218 -0.279354 0.0081999 0 112 101
0.377594 0.18419 -0.0008324 0 112 101
0.483506 0.280039 0.000776606 0 112 101
0.484818 -0.115275 -0.000620057 0 112 101
0.621272 -0.188196 0.00266061 0 112 101
0.446153 -0.247063 0.0089137 0 112 101
0.371273 -0.0975093 0.00982561 0 112 101
0.203423 -0.189897 -0.00433237 0 112 101
0.251472 0.105047 0.000764681 0 112 101
0.505141 -0.177374 0.00904582 0 112 101
0.411588 0.221621 -0.00672099 0 112 101
0.698623 0.144313 -0.000655046 0 112 101
0.312985 -0.0881369 -0.00721176 0 112 101
0.24309 0.0725407 -0.00577448 0 112 101
0.691864 0.0913255 -0.00300144 0 112 101
0.214353 -0.198913 -0.00628086 0 112 101
0.52394 0.13281 0.00442353 0 112 101
0.447033 -0.181982 -0.00197704 0 112 101
0.327758 -0.019831 -0.00434909 0 112 101
0.71928 0.149772 -3.05517e-05 0 112 101
0.386207 -0.27709 -0.00800754 0 112 101
0.451537 -0.0243255 0.0062071 0 112 101
0.329313 0.174678 0.00150963 0 112 101
0.382278 -0.114696 0.00293849 0 112 101
0.400162 0.0539264 -0.00634443 0 112 101
0.687225 0.149888 -0.00612526 0 112 101
0.304331 0.25883 0.00467741 0 112 101
0.437935 0.0033063 -0.00889662 0 112 101
0.560621 -0.26611 0.00439723 0 112 101
0.422701 -0.0377498 0.00869995 0 112 101
0.514265 -0.247524 -0.00545184 0 112 101
0.579205 0.247022 0.00979776 0 112 101
0.71585 0.1349 -0.00489352 0 112 101
0.735503 0.182058 -0.00305385 0 112 101
0.792159 0.140846 -0.00131857 0 112 101
0.572643 0.154975 -0.00415384 0 112 101
0.313312 -0.0820131 0.00603971 0 112 101
0.634892 -0.124179 -0.00979718 0 112 101
0.722629 0.121797 -0.00351207 0 112 101
0.2196 0.244589 0.00938399 0 112 101
0.428877 0.254986 0.000186305 0 112 101
0.219656 0.219234 0.00249568 0 112 101
0.59167 0.22209 0.00733928 0 112 101
0.566668 0.200071 -0.00135394 0 112 101
0.649439 -0.2367 -0.00408046 0 112 101
0.577534 0.272979 0.00571949 0 112 101
0.594988 0.0930836 0.00890488 0 112 101
0.740985 0.252447 -0.00493355 0 112 101
0.429996 0.257392 0.00765063 0 112 101
0.639643 -0.091206 -0.00455622 0 112 101
0.555632 -0.276769 0.00358645 0 112 101
0.651519 0.260756 0.00231129 0 112 101
0.619872 -0.246253 0.00848454 0 112 101
0.238114 0.00081722 0.00706546 0 112 101
0.757293 0.260902 -0.00258325 0 112 101
0.275847 0.0304126 -0.00854236 0 112 101
0.490159 -0.0554302 -0.00256703 0 112 101
0.26004 0.169518 0.00553952 0 112 101
0.457342 0.197315 0.000530604 0 112 101
0.591369 -0.129057 -0.000833199 0 112 101
0.304499 0.175421 0.00306358 0 112 101
0.671779 0.152021 0.0060175 0 112 101
0.350711 -0.0879748 -0.00540484 0 112 101
0.447107 0.267984 0.00631882 0 112 101
0.298057 0.0207434 0.00231084 0 112 101
0.527079 0.0315089 0.00439188 0 112 101
0.642845 -0.130907 -0.00421604 0 112 101
0.386922 -0.267614 0.00512497 0 112 101
0.47905 -0.272051 -0.000247378 0 112 101
0.62793 -0.034204 -0.00380361 0 112 101
0.445707 0.0646024 -0.000260645 0 112 101
0.23556 0.0648806 -0.00541784 0 112 101
0.702433 -0.242502 -0.0048614 0 112 101
0.739509 -0.011999 -0.00626755 0 112 101
0.495588 0.284497 -0.00630978 0 112 101
0.562369 -0.103038 0.00226687 0 112 101
0.255501 -0.228939 0.00776056 0 112 101
0.62668 -0.240535 0.00463209 0 112 101
0.686746 -0.249153 -0.0049371 0 112 101
0.603117 -0.259288 -0.00495882 0 112 101
0.565114 -0.106903 0.006428 0 112 101
0.634054 -0.257267 0.0018274 0 112 101
0.766656 -0.0490774 0.00921896 0 112 101
0.673651 -0.234142 0.00752839 0 112 101
0.23716 0.156917 -0.00357151 0 112 101
0.332281 0.20808 0.00710894 0 112 101
0.491753 0.0388175 -0.00769278 0 112 101
0.776381 0.221291 -0.00629521 0 112 101
0.456572 -0.267651 -0.00122163 0 112 101
0.575495 -0.0130817 0.00380743 0 112 101
0.220586 0.218953 -0.00360641 0 112 101
0.759931 0.0104122 0.00522707 0 112 101
0.663545 0.0127587 0.00931765 0 112 101
0.76086 0.291992 -0.00247743 0 112 101
0.581278 0.0279474 -0.00604364 0 112 101
0.742267 -0.00844902 0.00585294 0 112 101
0.707288 -0.131641 -0.00708733 0 112 101
0.370573 -0.0333435 0.00084267 0 112 101
0.556375 0.296457 -0.00636169 0 112 101
0.522357 0.108583 -0.00943646 0 112 101
0.330655 0.115395 0.00708527 0 112 101
0.583373 0.288687 -0.000600703 0 112 101
0.205751 0.128137 0.00622754 0 112 101
0.237688 -0.266723 0.00193559 0 112 101
0.519897 -0.105403 -0.00201866 0 112 101
0.332976 -0.101394 0.000913801 0 112 101
0.422478 0.244155 -0.000806133 0 112 101
0.742041 -0.269105 -0.00492046 0 112 101
0.323396 -0.273216 -0.00233922 0 112 101
0.402491 -0.0933397 -0.00663052 0 112 101
0.508697 -0.109247 0.00169419 0 112 101
0.216558 0.171874 0.00266035 0 112 101
0.366536 0.0764945 0.000226153 0 112 101
0.679758 0.205811 0.0060573 0 112 101
0.660058 -0.046481 -0.00787723 0 112 101
0.262502 0.103728 -0.000597719 0 112 101
0.294178 -0.18505 -0.00843081 0 112 101
0.493482 0.0172441 0.00613743 0 112 101
0.273581 -0.0450109 -0.00586546 0 112 101
0.442948 0.20991 0.000647747 0 112 101
0.457519 0.157336 0.00355377 0 112 101
0.405209 -0.283786 -0.00130591 0 112 101
0.2654 -0.084843 0.0055467 0 112 101
0.378665 0.244056 0.0032355 0 112 101
0.229572 -0.134643 -0.00743106 0 112 101
0.221357 -0.238983 0.0046293 0 112 101
0.243485 -0.0966387 0.000229613 0 112 101
0.475785 -0.159544 0.00150475 0 112 101
0.332839 0.212268 0.00967256 0 112 101
0.349011 -0.133867 -0.00477458 0 112 101
0.351895 -0.0757753 -0.00576879 0 112 101
0.312945 -0.103642 -0.00530734 0 112 101
0.59551 0.17118 0.0056993 0 112 101
0.300325 -0.273624 -0.00708597 0 112 101
0.708213 -0.101584 0.00602155 0 112 101
0.728011 -0.0386413 0.000636372 0 112 101
0.377826 -0.10093 -0.00113877 0 112 101
0.790726 -0.174523 0.00652807 0 112 101
0.795249 0.287582 -0.00960305 0 112 101
0.49816 -0.0676912 0.00877517 0 112 101
0.528457 0.0367351 -0.00432291 0 112 101
0.215945 0.165267 -0.00504467 0 112 101
0.23834 0.218291 0.00875485 0 112 101
0.61392 0.285381 -0.00762279 0 112 101
0.323155 0.223808 0.00389861 0 112 101
0.266534 -0.0339361 0.00410395 0 112 101
0.769097 0.00361458 -0.00314657 0 112 101
0.21122 -0.267051 0.000400348 0 112 101
0.279044 -0.031254 0.0085917 0 112 101
0.772772 -0.0336644 0.00926133 0 112 101
0.226156 -0.0229682 -0.00891989 0 112 101
0.727841 0.127601 -0.000511838 0 112 101
0.608997 -0.263192 -0.00337226 0 112 101
0.453111 0.0493691 0.00634622 0 112 101
0.501452 -0.268808 -0.000846887 0 112 101
0.340571 -0.248423 0.00331708 0 112 101
0.531051 0.297083 -0.000283401 0 112 101
0.7224 -0.131299 0.00963723 0 112 101
0.365464 -0.234654 0.00654751 0 112 101
0.329361 -0.0374897 -0.00306407 0 112 101
0.356817 -0.0239558 0.00931342 0 112 101
0.7989 -0.299561 0.00810347 0 112 101
0.694351 0.254233 0.0089212 0 112 101
0.497575 0.188795 -0.00386822 0 112 101
0.339277 -0.165556 0.000615057 0 112 101
0.625603 -0.290789 0.00205034 0 112 101
0.502299 0.125676 -0.00573028 0 112 101
0.733475 -0.0816706 0.00466763 0 112 101
0.661658 0.27315 0.0074067 0 112 101
0.775139 0.108066 0.00717831 0 112 101
0.646106 0.285314 0.000660097 0 112 101
0.715448 -0.0749174 0.00972646 0 112 101
0.753383 0.0514955 0.00796017 0 112 101
0.399523 -0.0389856 0.00148886 0 112 101
0.376477 -0.185152 -0.00239672 0 112 101
0.49577 0.0017372 -0.0086097 0 112 101
0.415268 0.27093 0.000124928 0 112 101
0.297407 0.154324 0.00236537 0 112 101
0.554523 -0.041438 0.00713716 0 112 101
0.432475 -0.244889 0.00375566 0 112 101
0.224497 0.284202 -0.00578178 0 112 101
0.312591 -0.265114 -0.00318198 0 112 101
0.685465 0.000665057 -0.00950066 0 112 101
0.549743 0.116684 -0.00471677 0 112 101
0.526262 0.0419687 0.00147529 0 112 101
0.781443 -0.00764885 -0.00428212 0 112 101
0.29347 0.160174 -0.0055862 0 112 101
0.202494 -0.130439 0.00132653 0 112 101
0.421594 0.115201 -0.00525929 0 112 101
0.396224 -0.290746 -0.00800977 0 112 101
0.473754 -0.195371 -0.00125922 0 112 101
0.425873 0.27245 0.00383687 0 112 101
0.451716 -0.0980337 -0.00768714 0 112 101
0.261767 0.299427 0.00656295 0 112 101
0.711223 0.274315 0.00338928 0 112 101
0.61562 0.116659 -0.00881423 0 112 101
0.722331 0.0933433 -0.00787249 0 112 101
0.219467 0.257067 0.00990527 0 112 101
0.794899 0.0936143 -0.00102223 0 112 101
0.52741 0.291991 0.000379844 0 112 101
0.321899 -0.273849 -0.0027176 0 112 101
0.458941 0.0268577 0.00693538 0 112 101
0.564728 -0.291972 0.00714928 0 112 101
0.76635 -0.157876 -0.00768973 0 112 101
0.3065 -0.0146992 -0.00917963 0 112 101
0.458893 0.0834809 0.00781146 0 112 101
0.612442 -0.0163915 0.00665841 0 112 101
0.52742 -0.239574 -0.00691905 0 112 101
0.554121 -0.261564 0.0046207 0 112 101
0.399465 -0.0342244 -0.00815779 0 112 101
0.75668 -0.195567 0.000210056 0 112 101
0.426737 0.0730856 0.00203139 0 112 101
0.709809 -0.19874 0.00442108 0 112 101
0.276188 0.210013 0.00382093 0 112 101
0.21409 -0.0720819 0.0051179 0 112 101
0.686817 0.0634547 -0.0056361 0 112 101
0.448652 0.168572 -0.0057191 0 112 101
0.61676 -0.0654009 0.0068314 0 112 101
0.406659 -0.140194 -0.0068722 0 112 101
0.396105 -0.190703 0.00664752 0 112 101
0.208349 -0.217062 -0.000358135 0 112 101
0.740278 -0.145507 -0.00702436 0 112 101
0.561007 0.243598 -0.00588447 0 112 101
0.333182 0.115709 -0.00207497 0 112 101
0.265748 -0.0254722 0.00252504 0 112 101
0.538644 -0.119378 -0.00721334 0 112 101
0.752499 -0.214571 0.000899973 0 112 101
0.242856 -0.168232 0.00869279 0 112 101
0.484448 0.22537 0.00944705 0 112 101
0.591507 -0.202761 0.00717433 0 112 101
0.735724 -0.298364 0.000315177 0 112 101
0.558783 0.253074 -0.0044621 0 112 101
0.50898 0.0587786 0.00887612 0 112 101
0.327187 -0.108901 -0.000770435 0 112 101
0.65474 0.110366 0.00806982 0 112 101
0.537938 -0.0437464 0.00608372 0 112 101
0.553437 -0.192956 -0.000573489 0 112 101
0.221117 0.149746 0.0062504 0 112 101
0.344086 0.108529 -0.00165645 0 112 101
0.495712 0.187424 -0.00642345 0 112 101
0.531641 -0.0897833 -0.00828683 0 112 101
0.669291 0.168839 0.00435603 0 112 101
0.435566 0.0462892 0.0029182 0 112 101
0.727264 -0.0993803 0.00390871 0 112 101
0.238467 -0.233906 0.00678495 0 112 101
0.3086 -0.0635692 0.0058786 0 112 101
0.766509 -0.149438 -0.00576304 0 112 101
0.424194 -0.290211 0.00799781 0 112 101
0.213017 -0.183424 -0.0061694 0 112 101
0.235433 0.0439289 0.00938246 0 112 101
0.778362 -0.0256619 -0.00440945 0 112 101
0.554402 -0.248004 -0.000390456 0 112 101
0.243049 -0.297933 0.00806014 0 112 101
0.787873 -0.0204143 0.00298538 0 112 101
0.583434 -0.0859845 0.000372982 0 112 101
0.761743 -0.163237 -0.00187468 0 112 101
0.633871 0.153748 0.00694557 0 112 101
0.448218 0.141532 -0.00283145 0 112 101
0.704514 0.123444 -0.00929566 0 112 101
0.78566 0.202139 -0.00824235 0 112 101
0.795554 0.240288 -0.00702937 0 112 101
0.281851 0.128806 -0.00294435 0 112 101
0.385449 0.130867 -0.0067607 0 112 101
0.269618 -0.229801 -0.00422924 0 112 101
0.313 0.282043 -0.000350168 0 112 101
0.461159 -0.287516 0.00711296 0 112 101
0.211012 0.138468 -0.00413289 0 112 101
0.603848 -0.0964614 -0.00839454 0 112 101
0.591718 -0.232759 0.0096348 0 112 101
0.296772 -0.207491 -0.0082023 0 112 101
0.470821 0.17852 -0.0020967 0 112 101
0.201993 -0.142354 0.00375892 0 112 101
0.731965 0.0354576 0.00677416 0 112 101
0.402935 0.14748 0.00643268 0 112 101
0.747656 0.0633402 -0.00832881 0 112 101
0.346398 0.197497 -0.00475787 0 112 101
0.769753 0.156255 -0.00181277 0 112 101
0.304637 0.00824403 0.0033108 0 112 101
0.425939 -0.116885 -0.00904697 0 112 101
0.442163 -0.00833117 -0.00669433 0 112 101
0.62281 -0.184135 0.00738631 0 112 101
0.520417 -0.0689543 -0.00866295 0 112 101
0.695743 -0.252023 -0.00341389 0 112 101
0.467696 0.272339 -0.0060977 0 112 101
0.539564 -0.209306 0.00971363 0 112 101
0.459724 0.277089 0.00146407 0 112 101
0.463943 0.282886 0.00104379 0 112 101
0.232921 -0.292957 -0.00626516 0 112 101
0.675978 -0.137224 0.0037572 0 112 101
0.312809 -0.182076 0.000243827 0 112 101
0.716654 -0.0202012 0.00153806 0 112 101
0.480507 0.0789924 0.00864118 0 112 101
0.622899 -0.232567 0.000559994 0 112 101
0.331237 -0.0658232 0.00882188 0 112 101
0.303038 0.262812 0.00262519 0 112 101
0.368141 -0.0857507 -0.00484756 0 112 101
0.739382 0.144542 0.00224883 0 112 101
0.356146 -0.0798506 -0.000467054 0 112 101
0.544377 -0.15845 0.00403988 0 112 101
0.414285 -0.253591 0.00892267 0 112 101
0.734517 0.0329589 0.0072626 0 112 101
0.684408 -0.201003 -0.00751722 0 112 101
0.589056 0.0641776 0.00541849 0 112 101
0.723956 -0.08037 -0.00106106 0 112 101
0.636459 0.186121 0.000459488 0 112 101
0.251741 0.142783 -0.00401911 0 112 101
0.51791 0.0437018 0.00885912 0 112 101
0.657232 -0.255544 0.00156691 0 112 101
0.486554 0.0777782 -0.00254464 0 112 101
0.402082 -0.00655108 0.00987073 0 112 101
0.77936 0.274137 -0.00873909 0 112 101
0.704336 -0.233361 0.00119756 0 112 101
0.475661 0.0380653 -0.00107232 0 112 101
0.335434 -0.235208 0.00970546 0 112 101
0.637059 0.0488929 0.00236881 0 112 101
0.367617 -0.255044 0.0095665 0 112 101
0.290889 0.264938 -0.000325644 0 112 101
0.574772 0.28561 0.00544427 0 112 101
0.437665 -0.261327 -0.00512632 0 112 101
0.386965 -0.292357 -0.00481323 0 112 101
0.757305 -0.237937 0.000905522 0 112 101
0.537127 -0.291295 -0.00153874 0 112 101
0.745457 0.0728445 -0.000516091 0 112 101
0.522318 -0.257236 -0.00592896 0 112 101
0.487586 -0.297992 -0.00193813 0 112 101
0.76134 0.0343174 0.00240764 0 112 101
0.659271 -0.291658 0.00849263 0 112 101
0.46792 -0.106564 0.00776805 0 112 101
0.303691 -0.230943 0.00689215 0 112 101
0.585923 0.179964 0.00664717 0 112 101
0.645484 -0.218267 0.000486713 0 112 101
0.570334 -0.285995 0.00113813 0 112 101
0.314991 0.144792 0.00410012 0 112 101
0.753557 -0.212228 -0.0073623 0 112 101
0.351467 0.147919 0.00496885 0 112 101
0.630703 -0.0882297 -0.00545803 0 112 101
0.482293 -0.254804 -0.00365402 0 112 101
0.509916 -0.225333 -0.000660368 0 112 101
0.573317 -0.162146 0.00117674 0 112 101
0.558766 0.23244 -0.001868 0 112 101
0.403716 0.197235 0.000197195 0 112 101
0.268581 -0.240229 -0.0063642 0 112 101
0.299516 -0.290166 0.00116121 0 112 101
0.510304 0.246131 0.0056435 0 112 101
0.604851 0.284694 -0.00936618 0 112 101
0.795197 -0.202399 -0.00150055 0 112 101
0.566399 0.236283 0.0073224 0 112 101
0.319205 0.130871 -0.00449224 0 112 101
0.420338 -0.148194 -0.0056023 0 112 101
0.345674 0.269679 0.00824419 0 112 101
0.463581 0.228034 -0.00846008 0 112 101
0.724158 0.283528 0.00505045 0 112 101
0.576294 -0.07099 0.00415592 0 112 101
0.589826 0.243064 -0.00186356 0 112 101
0.283404 0.127419 0.00298517 0 112 101
0.513829 -0.135472 -6.62382e-06 0 112 101
0.327046 0.1044 0.000337951 0 112 101
0.451627 0.127026 -0.00400868 0 112 101
0.382682 0.187008 0.00635094 0 112 101
0.206556 0.0335104 0.00889196 0 112 101
0.243579 0.196262 -0.00483515 0 112 101
0.451717 0.101233 -0.00324507 0 112 101
0.46351 -0.0840958 -0.00783213 0 112 101
0.258165 -0.0744554 -0.000652704 0 112 101
0.352366 0.00760233 0.00124714 0 112 101
0.330561 0.227317 -0.0093165 0 112 101
0.786136 0.103518 -0.00330116 0 112 101
0.464273 0.187348 0.00524728 0 112 101
0.74519 -0.0806743 0.00668153 0 112 101
0.510969 -0.13815 0.00266826 0 112 101
0.60122 -0.272999 0.00870078 0 112 101
0.520639 -0.206735 0.000311152 0 112 101
0.777537 0.0911783 0.00645995 0 112 101
0.487725 0.122818 -0.00171941 0 112 101
0.211152 0.23726 -0.00418965 0 112 101
0.466922 -0.28093 0.00390107 0 112 101
0.588195 -0.0343342 0.0046537 0 112 101
0.260067 0.100753 0.00996793 0 112 101
0.554797 -0.0327826 0.00678583 0 112 101
0.674072 0.0820561 -0.00981849 0 112 101
0.371116 0.263227 0.0045551 0 112 101
0.467816 -0.0390775 0.00530374 0 112 101
0.760817 0.265221 0.00853237 0 112 101
0.528125 0.197621 0.00409043 0 112 101
0.27557 -0.172533 0.00769847 0 112 101
0.780165 -0.201535 0.00809434 0 112 101
0.744336 0.0373018 -0.00926512 0 112 101
0.684086 -0.166834 -0.00586306 0 112 101
0.381796 0.139018 0.0063881 0 112 101
0.767761 -0.193221 -0.00706991 0 112 101
0.54242 -0.211879 0.00666468 0 112 101
0.659285 -0.181459 0.00807105 0 112 101
0.373021 -0.070696 0.00688288 0 112 101
0.205484 0.13366 0.004992 0 112 101
0.456313 0.161367 -0.00629569 0 112 101
0.584105 -0.0665671 0.00567691 0 112 101
0.298204 0.106215 -0.0013869 0 112 101
0.332735 -0.0992449 -0.000938352 0 112 101
0.68487 0.173242 -0.00902707 0 112 101
0.772018 0.157823 -0.00655967 0 112 101
0.259847 0.0551039 -0.005464 0 112 101
0.464889 0.095255 0.00588877 0 112 101
0.303728 -0.235916 0.00680358 0 112 101
0.262545 0.0798418 0.000355035 0 112 101
0.459109 0.160449 -0.000323415 0 112 101
0.317009 -0.125077 0.00893343 0 112 101
0.295072 0.209767 0.00367317 0 112 101
0.382406 0.0952277 -0.00286348 0 112 101
0.790723 0.299016 0.000837165 0 112 101
0.354657 0.180838 -0.00429939 0 112 101
0.756016 -0.172409 0.00386614 0 112 101
0.792737 0.169276 0.000665933 0 112 101
0.343882 -0.0887942 -0.00647771 0 112 101
0.586334 0.291652 -0.00235973 0 112 101
0.432205 0.212654 -0.00972403 0 112 101
0.279757 -0.258605 0.00321008 0 112 101
0.46152 -0.273951 0.00957349 0 112 101
0.409332 0.284625 0.00584425 0 112 101
0.508933 -0.22516 0.0014914 0 112 101
0.291688 -0.0488363 -0.0055676 0 112 101
0.461081 0.234126 0.00109708 0 112 101
0.590442 -0.116519 0.00881207 0 112 101
0.208028 -0.131639 0.000804272 0 112 101
0.651993 -0.269997 -0.00396679 0 112 101
0.377769 0.165383 -0.000449223 0 112 101
0.369564 -0.00531208 0.000154732 0 112 101
0.467908 0.254407 -0.0097307 0 112 101
0.62912 0.238741 0.00516843 0 112 101
0.544539 0.257333 0.00951137 0 112 101
0.771186 0.120969 0.00755813 0 112 101
0.248479 0.0252162 -0.00922783 0 112 101
0.725424 -0.192983 0.00486371 0 112 101
0.75976 0.131104 0.0092211 0 112 101
0.513372 -0.207569 0.00915803 0 112 101
0.280344 0.0571743 0.00686576 0 112 101
0.79732 0.276464 -0.008387 0 112 101
0.742098 0.0688655 -0.00783431 0 112 101
