ply
format ascii 1.0
comment Created by Open3D
element vertex 1192
property double x
property double y
property double z
property uchar red
property uchar green
property uchar blue
end_header
0.734387 0.140544 0.0006315 0 112 101
0.315398 -0.0821815 -0.00529757 0 112 101
0.277492 0.0155418 -0.00977557 0 112 101
0.420511 0.148232 -0.00411898 0 112 101
0.419253 -0.115394 0.00320998 0 112 101
0.25942 -0.27469 -0.0060384 0 112 101
0.330328 0.000320778 -0.00778667 0 112 101
0.795394 -0.170647 0.00273142 0 112 101
0.546801 0.276289 -0.00924887 0 112 101
0.287305 -0.29453 0.00779501 0 112 101
0.778483 -0.0257336 -0.00965514 0 112 101
0.348707 0.148217 -0.00917657 0 112 101
0.471297 -0.144844 -0.00378731 0 112 101
0.634798 0.102989 -0.00940594 0 112 101
0.772731 -0.0420076 -0.0038234 0 112 101
0.611454 -0.28264 -0.00844125 0 112 101
0.784118 0.214475 0.00464728 0 112 101
0.472845 0.193216 -0.00947196 0 112 101
0.367997 0.180433 -0.00478511 0 112 101
0.27803 0.0640062 -0.00668327 0 112 101
0.760533 -0.215263 -0.00870601 0 112 101
0.526542 -0.0346367 8.24733e-06 0 112 101
0.423644 0.122277 -0.00667001 0 112 101
0.790915 -0.0382338 0.00856482 0 112 101
0.308389 -0.186602 0.00583133 0 112 101
0.796884 0.192642 0.00482657 0 112 101
0.264672 -0.140325 -0.00173443 0 112 101
0.653912 -0.0457909 0.00178707 0 112 101
0.712986 0.0121604 -0.0028313 0 112 101
0.520564 -0.137954 0.00130957 0 112 101
0.596579 -0.106505 -0.00889719 0 112 101
0.221628 0.0111117 -0.00766227 0 112 101
0.745673 -0.253705 0.000938837 0 112 101
0.699101 0.186066 -0.00665324 0 112 101
0.555158 0.274018 -0.00756228 0 112 101
0.538592 0.169454 0.00159227 0 112 101
0.798675 0.24601 -0.00525241 0 112 101
0.354172 -0.256673 -0.00431159 0 112 101
0.603641 -0.131568 0.000170659 0 112 101
0.792349 -0.193804 0.0084842 0 112 101
0.647024 0.0320147 -0.00218127 0 112 101
0.252343 0.132492 -0.0064439 0 112 101
0.482819 0.147777 0.0011828 0 112 101
0.767073 0.129409 0.00224437 0 112 101
0.690943 0.262603 0.00334945 0 112 101
0.779068 0.0939252 -0.00535129 0 112 101
0.6335 -0.146843 0.00509133 0 112 101
0.699288 0.195691 -0.00736599 0 112 101
0.707908 -0.183755 -0.00118081 0 112 101
0.290982 0.238863 0.00801482 0 112 101
0.669965 0.0418456 -0.00611609 0 112 101
0.404106 0.122617 0.00687812 0 112 101
0.367194 0.0148737 -0.000118438 0 112 101
0.552218 0.183579 -0.00896164 0 112 101
0.540338 -0.123771 0.00729705 0 112 101
0.442744 -0.264332 -0.00203384 0 112 101
0.709013 0.0102289 0.00263438 0 112 101
0.789781 -0.171709 0.00292767 0 112 101
0.74583 -0.119166 0.00501353 0 112 101
0.775642 0.291448 0.00870942 0 112 101
0.281467 0.00389943 -0.00872019 0 112 101
0.541339 -0.167899 0.000660961 0 112 101
0.515375 0.294421 0.00949789 0 112 101
0.39518 -0.0377547 0.00480888 0 112 101
0.79396 -0.0939826 -0.000332054 0 112 101
0.595922 0.263347 -0.0007237 0 112 101
0.261071 -0.0595623 -0.00671683 0 112 101
0.395855 -0.00302447 0.00655893 0 112 101
0.229835 -0.237507 0.00423894 0 112 101
0.670932 -0.0167469 0.00957042 0 112 101
0.443829 -0.27184 0.00919137 0 112 101
0.398246 0.172238 0.00418192 0 112 101
0.586275 0.0382196 -0.00476268 0 112 101
0.206139 0.296409 -0.00926738 0 112 101
0.625836 -0.0255588 0.00124117 0 112 101
0.518777 0.228054 -0.00748493 0 112 101
0.449941 0.198691 0.00907658 0 112 101
0.208866 -0.23436 -0.00971396 0 112 101
0.392815 -0.0453033 0.00796177 0 112 101
0.514835 0.266157 0.00551836 0 112 101
0.743839 -0.106196 0.00365174 0 112 101
0.74652 -0.267342 0.00557417 0 112 101
0.468788 -0.0962957 0.00337463 0 112 101
0.514973 -0.243554 -0.00970663 0 112 101
0.683511 -0.0269734 -0.00399017 0 112 101
0.402598 -0.24517 0.000624254 0 112 101
0.534866 -0.151881 -0.00749968 0 112 101
0.715503 -0.0514341 -0.00673488 0 112 101
0.656007 -0.215166 0.00671971 0 112 101
0.473281 -0.0326732 -0.0024498 0 112 101
0.380314 0.155434 0.00929853 0 112 101
0.508629 -0.0624294 0.000159095 0 112 101
0.45747 0.176679 0.00241002 0 112 101
0.359932 0.115031 -0.00564705 0 112 101
0.786381 -0.234729 0.00991738 0 112 101
0.347296 0.0948573 0.00875563 0 112 101
0.447199 0.164008 0.00294671 0 112 101
0.440004 0.230799 0.000453419 0 112 101
0.47515 -0.295054 -0.00598619 0 112 101
0.458045 -0.205841 -0.00413097 0 112 101
0.418502 0.0832872 0.00220431 0 112 101
0.610926 -0.184335 -0.0084475 0 112 101
0.611805 -0.128591 0.00831896 0 112 101
0.367463 0.227642 0.000388859 0 112 101
0.348565 0.113213 0.00947118 0 112 101
0.201311 0.201548 0.00223814 0 112 101
0.395098 -0.129805 0.00244016 0 112 101
0.513609 0.225722 -0.00769116 0 112 101
0.435794 -0.124292 0.00438293 0 112 101
0.670987 0.0197108 0.00988167 0 112 101
0.70164 0.123269 0.00425263 0 112 101
0.279924 0.163769 -0.00769655 0 112 101
0.600938 0.226076 0.00293431 0 112 101
0.747241 -0.0202909 0.00810597 0 112 101
0.395633 -0.0692776 0.00606007 0 112 101
0.796917 0.0323366 -0.00794733 0 112 101
0.374229 -0.106885 -7.99627e-05 0 112 101
0.451936 -0.198477 -0.00774152 0 112 101
0.573615 0.0306251 0.00262071 0 112 101
0.714236 -0.206809 -0.00359118 0 112 101
0.673499 0.231253 0.00805851 0 112 101
0.40228 -0.164211 -0.00194017 0 112 101
0.277137 0.000751847 0.00133993 0 112 101
0.689036 -0.285436 -0.00206959 0 112 101
0.360587 -0.223427 0.000751391 0 112 101
0.65407 0.143212 0.00656886 0 112 101
0.333756 -0.144779 0.00798664 0 112 101
0.609963 0.0952448 0.00802493 0 112 101
0.675078 -0.198574 -0.00365005 0 112 101
0.642439 0.166861 -0.00986483 0 112 101
0.580683 -0.158633 0.00189704 0 112 101
0.330014 -0.262988 0.00820484 0 112 101
0.677386 0.105388 -0.00224204 0 112 101
0.705097 -0.209014 0.00284675 0 112 101
0.393539 0.0685241 0.00695621 0 112 101
0.457509 -0.126689 -0.000320408 0 112 101
0.349426 -0.209879 0.00546669 0 112 101
0.677578 0.0589043 -0.00331739 0 112 101
0.579198 -0.0027605 -0.00344324 0 112 101
0.786958 -0.0400182 0.00470441 0 112 101
0.556247 0.14637 0.0093889 0 112 101
0.738375 0.0243764 0.00236398 0 112 101
0.622542 -0.236142 -0.0051108 0 112 101
0.377657 -0.179814 0.00431702 0 112 101
0.673026 -0.253054 0.00686796 0 112 101
0.320993 0.271201 0.000124317 0 112 101
0.335848 0.261818 0.000793652 0 112 101
0.689837 0.123161 -0.00331885 0 112 101
0.610135 -0.0782526 -0.00924618 0 112 101
0.262827 -0.213669 0.00191078 0 112 101
0.669837 0.0802138 0.0013063 0 112 101
0.689312 0.20121 0.00837405 0 112 101
0.477602 0.270698 0.00470211 0 112 101
0.795498 0.154986 -0.00962348 0 112 101
0.286403 -0.249029 -0.00703912 0 112 101
0.324939 0.223847 -0.00314876 0 112 101
0.466752 -0.210438 -0.00598778 0 112 101
0.593319 -0.0313152 0.00943198 0 112 101
0.585748 -0.16244 0.000629643 0 112 101
0.578084 -0.00290801 0.00139876 0 112 101
0.543494 -0.297393 0.004429 0 112 101
0.252186 -0.0324049 0.00791441 0 112 101
0.280647 0.041874 0.00525499 0 112 101
0.696863 -0.0462851 0.00516936 0 112 101
0.466979 0.0663235 0.00433429 0 112 101
0.363587 0.0800711 -0.0082729 0 112 101
0.716592 -0.222362 -0.00551749 0 112 101
0.312885 -0.238746 -0.00558166 0 112 101
0.566994 -0.275903 -0.00516304 0 112 101
0.787135 -0.277331 0.00974399 0 112 101
0.725124 0.0975196 0.00604766 0 112 101
0.680442 0.0545618 -0.00230935 0 112 101
0.645694 -0.0800051 0.00111117 0 112 101
0.523201 0.0992231 -0.005266 0 112 101
0.60526 0.293585 -0.00214155 0 112 101
0.621774 -0.0135507 0.00939393 0 112 101
0.299569 0.192018 0.00446137 0 112 101
0.792532 -0.219523 0.00964155 0 112 101
0.447956 -0.0833278 -0.00214466 0 112 101
0.220159 0.123919 -0.0051498 0 112 101
0.470705 0.253673 -0.00647333 0 112 101
0.271559 0.251369 -0.00635106 0 112 101
0.568306 -0.28343 0.00348211 0 112 101
0.547883 0.149986 0.000535636 0 112 101
0.653879 -0.124021 0.00358114 0 112 101
0.794041 0.282917 0.00532782 0 112 101
0.649805 0.255003 -0.00891002 0 112 101
0.478409 -0.213593 0.00268882 0 112 101
0.39315 0.0867434 -0.00484455 0 112 101
0.48756 -0.262307 -0.00187584 0 112 101
0.273675 0.0223831 -0.00267793 0 112 101
0.760788 0.0732787 -0.0038759 0 112 101
0.404894 -0.0600915 0.00242196 0 112 101
0.772319 -0.00917877 0.0038734 0 112 101
0.312595 -0.24395 -0.00420654 0 112 101
0.663697 -0.115114 -0.00317152 0 112 101
0.27565 0.104981 0.00984434 0 112 101
0.349706 -0.272244 0.00836433 0 112 101
0.268692 -0.033682 0.00677124 0 112 101
0.490851 -0.1767 0.00405421 0 112 101
0.269775 -0.260129 0.00701373 0 112 101
0.794379 0.206629 0.00648472 0 112 101
0.339 0.104654 1.32716e-05 0 112 101
0.301398 -0.0794568 -0.00934887 0 112 101
0.79446 -0.0698329 0.00735289 0 112 101
0.491577 0.275048 0.00645182 0 112 101
0.281053 -0.00370183 0.0021987 0 112 101
0.286152 0.161672 0.00102457 0 112 101
0.262474 -0.281633 0.0032739 0 112 101
0.501137 -0.296793 -0.00473149 0 112 101
0.45797 -0.215519 0.00646693 0 112 101
0.573548 -0.266688 0.00205129 0 112 101
0.31513 0.0456065 -0.00945705 0 112 101
0.715061 -0.0614784 0.00872313 0 112 101
0.741743 -0.147426 -0.0020974 0 112 101
0.737391 0.0696128 0.00286686 0 112 101
0.515494 -0.227128 0.00365842 0 112 101
0.661698 0.291814 0.00152326 0 112 101
0.316798 -0.20871 -0.00827713 0 112 101
0.390591 -0.182361 0.00188934 0 112 101
0.285105 0.184998 -0.0050126 0 112 101
0.580957 -0.216413 0.00016515 0 112 101
0.763018 -0.136185 -0.000492517 0 112 101
0.501816 0.0202489 0.00837232 0 112 101
0.204403 0.239912 -0.00352279 0 112 101
0.758199 0.112771 0.000906934 0 112 101
0.681478 -0.161564 0.00282968 0 112 101
0.307054 0.200454 -0.00354476 0 112 101
0.3074 -0.0381694 -0.00296042 0 112 101
0.374062 0.26907 0.000210856 0 112 101
0.781766 -0.147811 -0.00132771 0 112 101
0.381305 -0.214853 -0.00213835 0 112 101
0.566132 0.0329791 0.00288402 0 112 101
0.503532 0.276905 -0.00211095 0 112 101
0.650136 0.0922507 0.00565695 0 112 101
0.486801 0.287827 0.00520639 0 112 101
0.561576 -0.135787 -0.00598227 0 112 101
0.266377 0.0781084 -0.00616307 0 112 101
0.202823 0.159572 -0.00825605 0 112 101
0.633089 0.0721263 -0.0072596 0 112 101
0.222036 -0.0115377 -0.00138852 0 112 101
0.488145 -0.0677921 -0.00511234 0 112 101
0.351986 0.183858 0.00168278 0 112 101
0.514848 0.273704 0.00335415 0 112 101
0.57285 -0.0426328 -0.00696521 0 112 101
0.503433 0.0406046 -0.00572734 0 112 101
0.573134 0.0611811 -0.00983522 0 112 101
0.700643 0.186742 0.00356284 0 112 101
0.207946 -0.224352 -0.00493551 0 112 101
0.395275 0.132679 -0.00313156 0 112 101
0.499707 -0.299319 -0.00289428 0 112 101
0.358733 -0.222391 -0.00216781 0 112 101
0.306104 -0.169568 -0.0019077 0 112 101
0.209714 -0.124731 0.00265068 0 112 101
0.510384 0.0928014 -0.00136003 0 112 101
0.7732 -0.122215 -0.00758957 0 112 101
0.331579 -0.243673 -0.00968299 0 112 101
0.661274 0.13523 0.00906877 0 112 101
0.301765 0.271302 -0.00510965 0 112 101
0.554712 0.0650035 -0.00274419 0 112 101
0.560011 -0.270537 -0.00707743 0 112 101
0.379764 -0.235573 0.00342898 0 112 101
0.317996 -0.171745 -0.00512658 0 112 101
0.672641 0.217835 0.00584582 0 112 101
0.532382 -0.220678 -0.00584188 0 112 101
0.636732 -0.231945 -0.00808966 0 112 101
0.228842 0.296587 0.00914293 0 112 101
0.548344 -0.222413 -0.00952221 0 112 101
0.426942 0.106314 -0.00994192 0 112 101
0.681983 0.00732933 0.00671364 0 112 101
0.229143 -0.223261 -0.00648229 0 112 101
0.265819 0.241832 0.00763514 0 112 101
0.705548 -0.169181 -0.00837367 0 112 101
0.660501 0.0814489 0.00814922 0 112 101
0.268932 0.258955 -0.00884811 0 112 101
0.523093 -0.102309 -0.00947391 0 112 101
0.319612 0.19565 -0.00754168 0 112 101
0.434194 -0.193444 -0.00124656 0 112 101
0.315905 0.0262763 0.00159776 0 112 101
0.743963 0.224642 -0.00563984 0 112 101
0.670306 -0.22955 0.00834429 0 112 101
0.738812 0.253325 0.00925084 0 112 101
0.643148 -0.225001 -0.00693957 0 112 101
0.258539 -0.0774398 0.00973212 0 112 101
0.711917 -0.143942 0.00580292 0 112 101
0.328889 -0.277675 0.00967665 0 112 101
0.336303 0.249485 -0.00698652 0 112 101
0.489749 0.00684728 -0.000265119 0 112 101
0.359958 0.21949 0.00260055 0 112 101
0.47929 -0.247527 0.00613712 0 112 101
0.741326 0.122519 0.00922995 0 112 101
0.725417 -0.165637 0.00152157 0 112 101
0.678169 -0.188263 0.00335363 0 112 101
0.620007 0.261529 0.000563154 0 112 101
0.612819 -0.200161 0.000434603 0 112 101
0.259052 0.0706515 0.00745796 0 112 101
0.429164 -0.0281628 -0.0075051 0 112 101
0.681753 -0.201504 0.00312707 0 112 101
0.303113 -0.0416794 -0.00563149 0 112 101
0.240805 0.196109 -0.00724026 0 112 101
0.539744 -0.288582 0.00414851 0 112 101
0.490494 -0.227351 -0.00133971 0 112 101
0.256424 0.263532 0.00860236 0 112 101
0.654608 -0.220592 0.00214897 0 112 101
0.24223 0.261797 -0.00330037 0 112 101
0.451756 0.204629 0.000213001 0 112 101
0.223144 -0.17701 -0.00409705 0 112 101
0.741143 -0.127315 0.00449096 0 112 101
0.219092 -0.088986 -0.00325602 0 112 101
0.558139 0.223453 -0.00168561 0 112 101
0.252655 -0.221023 -0.00661269 0 112 101
0.712042 0.0270875 0.000865993 0 112 101
0.210376 0.248413 -0.00802814 0 112 101
0.222986 0.110142 -0.00253528 0 112 101
0.552385 0.208818 -0.00831288 0 112 101
0.290626 -0.215823 -0.00304975 0 112 101
0.456591 -0.0767731 -0.00983947 0 112 101
0.291678 0.293964 -0.00917865 0 112 101
0.502826 0.102205 -0.00930145 0 112 101
0.413276 -0.132648 0.00328468 0 112 101
0.411672 0.0222995 0.00300257 0 112 101
0.793122 -0.0735452 -0.00222569 0 112 101
0.745858 -0.0209892 0.0046574 0 112 101
0.794458 -0.148959 0.0084639 0 112 101
0.60101 0.292494 0.00602268 0 112 101
0.641822 0.145696 0.00931083 0 112 101
0.412694 -2.96196e-05 0.00884672 0 112 101
0.410536 -0.264219 0.0088251 0 112 101
0.376971 0.228797 0.00974569 0 112 101
0.285262 0.276877 -0.00841198 0 112 101
0.583713 0.0544241 0.00344911 0 112 101
0.554797 0.207048 -0.00301606 0 112 101
0.497817 -0.0636662 0.00261787 0 112 101
0.330542 0.0442597 0.00557113 0 112 101
0.651187 0.233232 0.00445129 0 112 101
0.753718 -0.239434 -0.00341653 0 112 101
0.796039 -0.106105 -0.004678 0 112 101
0.420814 0.218118 0.00553056 0 112 101
0.586257 0.108645 -0.00794002 0 112 101
0.406476 0.298698 -0.00248549 0 112 101
0.215555 0.116879 -0.00588566 0 112 101
0.562369 0.267808 -0.00558267 0 112 101
0.474671 0.185561 -0.00108457 0 112 101
0.566272 0.137126 0.00568151 0 112 101
0.409507 -0.150891 -0.00926603 0 112 101
0.335244 -0.233693 -0.00330911 0 112 101
0.548633 0.110713 -1.63421e-05 0 112 101
0.764169 -0.205624 0.0011721 0 112 101
0.435071 -0.208393 -0.00638871 0 112 101
0.269996 0.152482 0.00519762 0 112 101
0.766629 -0.0480826 -0.00577649 0 112 101
0.47758 0.0520244 -0.00635169 0 112 101
0.332432 0.0595763 -0.00362347 0 112 101
0.362503 0.26922 0.0099579 0 112 101
0.748515 -0.0414101 0.00724187 0 112 101
0.441573 0.0355511 -0.00388742 0 112 101
0.522049 -0.26515 -0.00587753 0 112 101
0.569854 0.107829 -0.00766852 0 112 101
0.201707 0.181402 -0.0078264 0 112 101
0.445778 -0.105374 0.003504 0 112 101
0.504107 0.155421 0.00525621 0 112 101
0.349836 0.281286 0.00834849 0 112 101
0.363285 -0.235213 0.00173045 0 112 101
0.391684 -0.292457 -0.00575189 0 112 101
0.202764 -0.160667 0.00665641 0 112 101
0.599446 -0.193871 0.00257321 0 112 101
0.688528 -0.04615 -0.00935223 0 112 101
0.283464 0.253576 -0.00505483 0 112 101
0.384312 -0.25788 0.00709037 0 112 101
0.505835 0.171225 0.00920858 0 112 101
0.610406 -0.21121 -0.00857087 0 112 101
0.303964 -0.0770351 -0.00996321 0 112 101
0.542342 -0.166113 -0.00912998 0 112 101
0.612389 -0.140569 0.00268974 0 112 101
0.204934 0.265263 0.00524252 0 112 101
0.542533 -0.20054 0.00493251 0 112 101
0.70587 0.22297 -0.00447744 0 112 101
0.236886 0.255661 -0.00700642 0 112 101
0.551618 -0.173767 0.00613757 0 112 101
0.354439 -0.20746 -0.00930588 0 112 101
0.29516 0.0571862 -0.00816508 0 112 101
0.627336 -0.295341 -0.00484658 0 112 101
0.384822 -0.182547 0.00244345 0 112 101
0.384759 0.0649641 0.00077708 0 112 101
0.703791 0.091644 -0.00309917 0 112 101
0.595939 -0.254364 -0.0080193 0 112 101
0.267681 -0.060007 -0.00981406 0 112 101
0.327266 -0.186612 0.0033985 0 112 101
0.242925 0.115519 0.000909986 0 112 101
0.581731 0.222506 0.00132801 0 112 101
0.787982 -0.0328242 0.0094299 0 112 101
0.24539 0.202366 -0.00967522 0 112 101
0.580331 -0.0682519 0.00610032 0 112 101
0.796141 0.0815317 0.00268037 0 112 101
0.243292 -0.299487 -0.00661046 0 112 101
0.331121 0.152517 -0.0040049 0 112 101
0.236501 0.0485295 -0.00802375 0 112 101
0.538041 -0.0634281 0.00704577 0 112 101
0.267832 -0.0232847 0.00950879 0 112 101
0.413099 0.139212 0.00449176 0 112 101
0.57462 -0.263842 -0.00212886 0 112 101
0.3347 -0.153853 -0.00211936 0 112 101
0.745436 0.057385 0.00074112 0 112 101
0.569494 0.0927025 0.0059053 0 112 101
0.32345 -0.232402 0.00798582 0 112 101
0.418455 -0.0682991 -0.00661809 0 112 101
0.560904 -0.107419 0.00699697 0 112 101
0.755272 0.0477115 -0.00167419 0 112 101
0.788921 0.20688 -0.003117 0 112 101
0.360663 -0.138941 0.002733 0 112 101
0.544105 0.165815 0.00453074 0 112 101
0.78735 0.255542 0.00796274 0 112 101
0.322797 -0.103325 0.000542669 0 112 101
0.68462 0.117635 0.00313785 0 112 101
0.564769 -0.184413 -0.00899139 0 112 101
0.465565 -0.17884 0.00685626 0 112 101
0.586049 -0.129492 -0.00370761 0 112 101
0.507707 0.251554 -0.00316116 0 112 101
0.794622 0.11499 -0.00222127 0 112 101
0.397114 0.28482 0.0052667 0 112 101
0.392608 0.246241 0.0089392 0 112 101
0.611324 -0.00970776 0.00459258 0 112 101
0.457382 -0.0770137 -0.00479441 0 112 101
0.204041 0.220922 0.00265884 0 112 101
0.492413 -0.249816 -0.00881895 0 112 101
0.454091 0.164629 0.00478956 0 112 101
0.352228 -0.243435 -0.00601193 0 112 101
0.506159 -0.0685879 -0.00567266 0 112 101
0.403835 -0.256988 0.00523449 0 112 101
0.575052 -0.148037 0.0057012 0 112 101
0.52986 0.110369 -0.00112474 0 112 101
0.333089 -0.151315 0.00187553 0 112 101
0.676098 0.249412 -0.00182759 0 112 101
0.697517 -0.0238583 0.0017934 0 112 101
0.390844 0.145836 -0.00437214 0 112 101
0.375102 0.265997 0.00522289 0 112 101
0.54456 0.280299 -0.00234848 0 112 101
0.25511 -0.016263 -0.00162831 0 112 101
0.788339 -0.250636 -0.00330612 0 112 101
0.469089 0.276084 -0.00763146 0 112 101
0.28385 0.255888 -0.00829194 0 112 101
0.311807 -0.238547 0.00472876 0 112 101
0.716136 -0.063164 0.000285703 0 112 101
0.607003 -0.157062 -0.00385417 0 112 101
0.315134 -0.0476443 0.00814731 0 112 101
0.754221 -0.0453638 0.00103456 0 112 101
0.757709 -0.0648591 0.00296415 0 112 101
0.302003 -0.224134 -0.00257623 0 112 101
0.490817 -0.0171632 0.00926543 0 112 101
0.281687 -0.270735 0.0095619 0 112 101
0.374887 0.215888 -0.00202889 0 112 101
0.471597 0.152308 0.00224876 0 112 101
0.777529 0.233057 -0.00193957 0 112 101
0.529583 0.160137 -0.00219616 0 112 101
0.243928 0.229104 -0.00659321 0 112 101
0.653808 -0.292213 -0.00347169 0 112 101
0.452174 0.0844342 -0.00738473 0 112 101
0.47601 -5.82642e-05 0.00470158 0 112 101
0.708073 0.0602931 -0.00337712 0 112 101
0.6419 0.282056 -0.00207611 0 112 101
0.713474 -0.15707 0.0078583 0 112 101
0.687283 -0.0524751 0.00902929 0 112 101
0.303779 -0.110894 -0.00209169 0 112 101
0.451649 -0.161786 0.00436732 0 112 101
0.532991 -0.0425014 -0.00887214 0 112 101
0.601826 -0.232589 0.00452279 0 112 101
0.641782 -0.129262 0.00353684 0 112 101
0.649554 -0.0246464 -0.000721331 0 112 101
0.686848 -0.286755 -0.0075099 0 112 101
0.757095 0.0501954 0.00811785 0 112 101
0.378013 -0.180232 0.00470877 0 112 101
0.70435 -0.250844 -0.00970573 0 112 101
0.395543 0.216843 -0.00805175 0 112 101
0.346452 -0.0446412 -0.00940938 0 112 101
0.314592 -0.136221 0.00658968 0 112 101
0.220139 0.0499811 0.00641409 0 112 101
0.431591 0.025879 0.00583806 0 112 101
0.233669 0.06758 -0.00914365 0 112 101
0.309916 0.151603 0.00357903 0 112 101
0.267769 0.274573 0.0030982 0 112 101
0.536138 0.0164551 0.00859309 0 112 101
0.541048 -0.125318 -0.00757866 0 112 101
0.575212 0.124864 -0.000938975 0 112 101
0.417498 -0.0151518 -0.00907536 0 112 101
0.586303 0.0142955 0.00492654 0 112 101
0.52362 -0.023477 0.00410477 0 112 101
0.282478 0.079949 -0.00759477 0 112 101
0.742182 0.256882 -0.00283208 0 112 101
0.788841 -0.29592 -0.00531489 0 112 101
0.648112 -0.00110298 0.00090596 0 112 101
0.268608 0.0496741 -0.0083264 0 112 101
0.787128 0.043182 -0.00971705 0 112 101
0.422899 -0.297087 -0.00888405 0 112 101
0.49113 -0.185341 -0.0013065 0 112 101
0.501657 0.0589617 0.00122594 0 112 101
0.35289 0.263397 -0.00646634 0 112 101
0.393411 0.033664 -0.00372283 0 112 101
0.252231 -0.295224 -0.00675743 0 112 101
0.419677 -0.0204507 0.00522939 0 112 101
0.507637 0.235521 0.00253541 0 112 101
0.377865 0.0236811 0.00413418 0 112 101
0.798488 -0.273057 -0.00878359 0 112 101
0.474351 -0.183992 0.00936558 0 112 101
0.534293 0.184303 0.00604266 0 112 101
0.56319 0.25906 -0.00244656 0 112 101
0.377223 -0.0661331 0.00358545 0 112 101
0.217486 -0.164509 0.00765336 0 112 101
0.542788 0.0721047 0.00125621 0 112 101
0.304671 -0.2804 -0.00835238 0 112 101
0.247127 0.0252378 0.00308652 0 112 101
0.472161 -0.238691 -0.000818241 0 112 101
0.651869 0.238812 -0.00502415 0 112 101
0.634397 0.208801 -0.00674615 0 112 101
0.402618 0.174238 0.00632727 0 112 101
0.758429 -0.0630105 0.00635585 0 112 101
0.753668 0.111588 0.00650689 0 112 101
0.441301 -0.0422408 0.00149765 0 112 101
0.550804 0.249168 -0.000442231 0 112 101
0.553203 0.12726 -0.00156239 0 112 101
0.464936 0.296695 -0.00196495 0 112 101
0.571961 0.128407 -0.000256076 0 112 101
0.374539 -0.204158 -0.00808933 0 112 101
0.483602 0.0298372 0.0087541 0 112 101
0.796956 0.276956 0.00519157 0 112 101
0.55562 -0.200736 -0.00966699 0 112 101
0.658936 -0.29258 0.00427201 0 112 101
0.371822 -0.0599019 0.00452994 0 112 101
0.509339 0.00429675 0.00361971 0 112 101
0.584352 -0.180037 0.00977919 0 112 101
0.217116 -0.114643 0.00581834 0 112 101
0.411035 0.238233 -0.00945917 0 112 101
0.366559 0.000904498 0.00443797 0 112 101
0.6166 0.094486 0.00486669 0 112 101
0.623916 0.0787535 -0.00953439 0 112 101
0.705655 -0.104871 0.00505684 0 112 101
0.2239 -0.0530673 -0.00568349 0 112 101
0.262526 0.249447 0.00434799 0 112 101
0.530598 -0.263224 -0.00419036 0 112 101
0.71172 0.110762 -0.00257132 0 112 101
0.360848 -0.0594983 0.00543848 0 112 101
0.662237 0.0896357 -0.00830088 0 112 101
0.29643 -0.169484 -0.00398902 0 112 101
0.556105 -0.0102371 -0.000923122 0 112 101
0.405522 -0.0817175 0.00635281 0 112 101
0.767256 0.07821 -0.00297305 0 112 101
0.2708 0.0604526 -0.00415984 0 112 101
0.231582 0.2203 -0.000784324 0 112 101
0.209671 -0.180407 -0.0055995 0 112 101
0.782571 -0.153895 0.00840587 0 112 101
0.718589 -0.267289 -0.00170757 0 112 101
0.594307 0.21478 -0.00806862 0 112 101
0.435667 0.18933 -0.00684827 0 112 101
0.74114 0.277721 -0.0088552 0 112 101
0.756231 0.278876 0.00423662 0 112 101
0.230803 0.244637 -0.00540447 0 112 101
0.735798 0.297189 0.00334916 0 112 101
0.448859 -0.142643 -0.000471119 0 112 101
0.570041 0.269406 -0.00861117 0 112 101
0.248606 -0.29242 -0.00253344 0 112 101
0.359902 0.265531 -0.00728418 0 112 101
0.271316 -0.161138 0.000651254 0 112 101
0.776041 -0.234143 0.00599466 0 112 101
0.360295 -0.269853 0.00757109 0 112 101
0.584801 0.256082 0.00480343 0 112 101
0.512781 0.00917382 0.00724302 0 112 101
0.539591 -0.200576 0.00668462 0 112 101
0.546152 0.220418 -0.00317878 0 112 101
0.255996 -0.135126 0.0027946 0 112 101
0.299721 0.19897 -0.00299441 0 112 101
0.776801 -0.0314173 -0.0047673 0 112 101
0.771215 -0.220089 -0.00633334 0 112 101
0.344892 -0.165938 -0.0040155 0 112 101
0.588125 -0.216139 -0.00304508 0 112 101
0.245561 0.00818791 -0.00355375 0 112 101
0.570924 0.0807967 0.0036064 0 112 101
0.559929 -0.194787 0.00496197 0 112 101
0.699523 0.0258106 -0.0056496 0 112 101
0.549317 -0.0605097 -0.00195764 0 112 101
0.573203 0.172958 0.0055675 0 112 101
0.587236 0.209585 0.00180836 0 112 101
0.767889 0.194423 0.0037228 0 112 101
0.542555 -0.288066 -0.0031842 0 112 101
0.67162 -0.216709 0.00604326 0 112 101
0.343115 0.0938878 -0.000474054 0 112 101
0.75041 0.185355 0.00952462 0 112 101
0.768494 -0.0585644 0.00751941 0 112 101
0.378409 -0.0618709 -0.00590776 0 112 101
0.351171 -0.1018 0.000455071 0 112 101
0.277057 0.210878 0.006979 0 112 101
0.370672 -0.0908884 -0.00115542 0 112 101
0.738907 0.219128 0.00390966 0 112 101
0.744836 -0.083443 0.00219127 0 112 101
0.33164 0.280899 -0.0014601 0 112 101
0.418931 -0.234658 0.00173374 0 112 101
0.456421 0.0631622 -0.00530031 0 112 101
0.586326 -0.263546 0.00343411 0 112 101
0.695647 -0.17959 0.00563635 0 112 101
0.427554 -0.212215 -0.00859132 0 112 101
0.670532 0.19583 -0.00964654 0 112 101
0.464321 -0.262162 0.000855141 0 112 101
0.735114 -0.100572 0.00222354 0 112 101
0.503694 -0.24835 -0.00940857 0 112 101
0.396246 -0.290844 0.000363444 0 112 101
0.443157 -0.299477 -0.00253696 0 112 101
0.722331 -0.15208 -0.00374018 0 112 101
0.744978 0.242276 0.00892182 0 112 101
0.369358 0.197886 0.000862898 0 112 101
0.41098 -0.263547 -0.00597905 0 112 101
0.467499 -0.236381 -0.00435748 0 112 101
0.252577 0.0618893 -0.0042887 0 112 101
0.520781 0.011529 -0.00613097 0 112 101
0.709474 -0.206571 0.0030309 0 112 101
0.620615 -0.108293 -0.00101987 0 112 101
0.631138 -0.269865 -0.0092504 0 112 101
0.415345 -0.224191 0.00442716 0 112 101
0.309884 0.124438 0.00205722 0 112 101
0.733739 -0.0641271 0.000752333 0 112 101
0.289673 0.257188 0.00782751 0 112 101
0.589287 -0.185113 -0.000490037 0 112 101
0.674236 -0.189473 0.00780975 0 112 101
0.445358 0.103472 -0.00689274 0 112 101
0.56383 -0.075738 -0.000297554 0 112 101
0.266568 -0.142628 0.00815875 0 112 101
0.534065 -0.17056 -0.000416306 0 112 101
0.736527 0.0299385 0.0089799 0 112 101
0.668019 0.0230479 -0.00800333 0 112 101
0.26177 0.138749 0.00636067 0 112 101
0.616163 0.0253117 0.00809783 0 112 101
0.307183 0.239895 0.00722948 0 112 101
0.273512 0.101464 -0.00330872 0 112 101
0.691883 -0.124957 0.00873131 0 112 101
0.770958 0.174506 -0.0014196 0 112 101
0.74053 0.164526 -0.00902667 0 112 101
0.525822 -0.140851 0.00926665 0 112 101
0.612258 0.121419 -0.00697733 0 112 101
0.583391 -0.140197 -0.00363455 0 112 101
0.704788 -0.129947 -0.005388 0 112 101
0.608079 0.161699 -0.00252104 0 112 101
0.222408 0.141381 -0.00185525 0 112 101
0.342013 0.278297 0.00161841 0 112 101
0.634494 0.0527447 -0.0042106 0 112 101
0.540496 0.0694144 -0.00938478 0 112 101
0.516514 0.236706 0.00774872 0 112 101
0.550802 -0.187715 0.00175555 0 112 101
0.645684 -0.000579251 -0.00131646 0 112 101
0.404284 0.205309 0.00703808 0 112 101
0.500242 -0.259232 0.00623048 0 112 101
0.444446 0.161579 -0.00748875 0 112 101
0.491581 -0.016199 0.000769284 0 112 101
0.641629 0.170373 -0.00262534 0 112 101
0.505978 0.12784 -0.0012353 0 112 101
0.707342 0.109459 0.00574242 0 112 101
0.466905 0.256283 -0.00402089 0 112 101
0.720718 -0.140618 -0.00839162 0 112 101
0.33592 0.200135 -0.0087473 0 112 101
0.350637 0.172562 -0.00731865 0 112 101
0.628029 -0.28218 -0.00926727 0 112 101
0.624504 -0.109333 0.00097447 0 112 101
0.716167 0.15626 0.00527131 0 112 101
0.753805 -0.145871 -0.00250649 0 112 101
0.455799 0.0792937 0.00114974 0 112 101
0.560041 -0.233408 -0.00690038 0 112 101
0.517111 0.121584 0.00689772 0 112 101
0.717804 0.0350143 -0.00885264 0 112 101
0.202914 -0.139923 0.00819602 0 112 101
0.269817 0.25959 -0.00797889 0 112 101
0.323634 -0.230143 -0.00236816 0 112 101
0.215351 0.169992 0.00912046 0 112 101
0.466361 0.266277 0.00495181 0 112 101
0.29634 -0.121813 0.000886267 0 112 101
0.384773 0.188644 0.00152657 0 112 101
0.707866 -0.11992 0.00687776 0 112 101
0.526582 0.130771 0.00770852 0 112 101
0.235781 -0.116988 0.00190077 0 112 101
0.796092 -0.262139 0.00274368 0 112 101
0.272723 -0.162093 -0.00963217 0 112 101
0.384386 -0.0402998 -0.00528473 0 112 101
0.50886 -0.203534 0.00985605 0 112 101
0.681934 -0.260423 0.00217992 0 112 101
0.634881 -0.15507 0.00947902 0 112 101
0.419097 -0.102037 0.00718649 0 112 101
0.312583 0.0443683 0.0026369 0 112 101
0.449491 0.279526 -0.00420892 0 112 101
0.576659 -0.229225 0.00987743 0 112 101
0.665996 -0.243756 0.00920335 0 112 101
0.458505 -0.27879 -0.00531089 0 112 101
0.581837 -0.109762 -0.00461232 0 112 101
0.770176 0.116439 -0.0055735 0 112 101
0.740284 0.226343 -0.00484465 0 112 101
0.639131 -0.267072 0.00463572 0 112 101
0.724874 0.182852 0.00464306 0 112 101
0.447793 0.189826 0.0054606 0 112 101
0.488211 0.00638672 -0.00679814 0 112 101
0.479701 0.0772148 -0.00277499 0 112 101
0.691221 0.038946 -0.0032738 0 112 101
0.356778 -0.21698 -0.00261043 0 112 101
0.49809 -0.0321055 0.00432323 0 112 101
0.465842 -0.162515 -0.00835095 0 112 101
0.314269 -0.234413 0.00080945 0 112 101
0.676375 0.18539 0.0024176 0 112 101
0.213719 0.0490088 0.00488983 0 112 101
0.381784 -0.0279448 0.00140851 0 112 101
0.223963 -0.121841 -0.00129649 0 112 101
0.472482 -0.0131843 0.00882245 0 112 101
0.751484 -0.120535 -0.00602277 0 112 101
0.486577 -0.018972 -0.00207131 0 112 101
0.560217 -0.294889 -0.00920503 0 112 101
0.53807 0.13326 -0.0016061 0 112 101
0.55328 0.134096 0.00394776 0 112 101
0.298897 -0.0865513 0.00457744 0 112 101
0.598538 -0.185754 -0.00841949 0 112 101
0.77106 0.221468 -0.00560975 0 112 101
0.671034 -0.16811 0.00139773 0 112 101
0.669486 0.268693 -0.00547525 0 112 101
0.207838 -0.0101717 0.00490068 0 112 101
0.769168 0.167655 -0.00692061 0 112 101
0.597132 -0.0172737 0.00938287 0 112 101
0.20915 0.237234 0.00844849 0 112 101
0.214873 -0.0729151 -0.00164458 0 112 101
0.572872 -0.128875 0.00391631 0 112 101
0.545931 -0.0211962 0.00254232 0 112 101
0.204893 0.151687 0.00417325 0 112 101
0.480605 -0.0746691 -0.00195073 0 112 101
0.76096 0.118859 -0.000205613 0 112 101
0.35284 -0.0947388 0.00406748 0 112 101
0.597938 0.152032 -0.00456638 0 112 101
0.398298 -0.292746 0.0016885 0 112 101
0.400094 -0.0293598 0.00275637 0 112 101
0.272457 0.0943608 0.00410776 0 112 101
0.331235 0.201935 0.00190695 0 112 101
0.389399 -0.259753 -0.00624098 0 112 101
0.235723 -0.114642 -0.00406309 0 112 101
0.708514 -0.165608 0.00919546 0 112 101
0.76026 -0.178007 -0.00658288 0 112 101
0.590402 -0.145109 0.00577228 0 112 101
0.706993 -0.255543 0.00690954 0 112 101
0.592074 -0.14199 -0.0048781 0 112 101
0.34833 -0.159274 0.00721293 0 112 101
0.583775 -0.0606432 -0.00505614 0 112 101
0.451026 -0.103505 -0.00438184 0 112 101
0.534047 -0.236331 -0.00582838 0 112 101
0.219295 0.255773 -0.00679904 0 112 101
0.298766 -0.198359 0.00611867 0 112 101
0.552849 0.217461 0.000189714 0 112 101
0.774331 -0.263294 -0.0013889 0 112 101
0.407782 0.0710187 0.00348565 0 112 101
0.50657 -0.150807 0.00430092 0 112 101
0.574493 -0.212268 -0.00521516 0 112 101
0.795164 0.281624 -0.00868125 0 112 101
0.734609 -0.298658 0.00362915 0 112 101
0.331216 0.240475 0.00812415 0 112 101
0.742341 0.11758 -0.0041723 0 112 101
0.440017 0.112705 0.000355617 0 112 101
0.702639 0.273989 -0.00578558 0 112 101
0.256833 0.272751 -0.0063145 0 112 101
0.470366 -0.0948761 0.00583996 0 112 101
0.480087 0.161258 0.00795229 0 112 101
0.392024 -0.275419 -0.0098559 0 112 101
0.266073 0.0364849 0.00470416 0 112 101
0.295672 -0.0344061 -0.00321015 0 112 101
0.564655 0.282204 -0.00108972 0 112 101
0.578265 -0.100224 0.00920102 0 112 101
0.381352 0.156983 -0.000822823 0 112 101
0.517821 -0.00784124 0.00998373 0 112 101
0.53226 -0.157308 0.00943306 0 112 101
0.539654 0.0884387 -0.00215428 0 112 101
0.617336 -0.265749 0.00265993 0 112 101
0.766391 0.114681 -0.00640696 0 112 101
0.642015 0.0441474 -0.00589705 0 112 101
0.576394 0.296315 -0.00937472 0 112 101
0.788874 0.059301 0.00214076 0 112 101
0.645036 -0.0413256 -0.00734569 0 112 101
0.75078 -0.251002 -0.00736005 0 112 101
0.589994 0.128719 -0.00679845 0 112 101
0.485319 0.125374 0.00342096 0 112 101
0.590312 0.153534 0.000460513 0 112 101
0.556524 0.220975 0.00315166 0 112 101
0.407016 0.258437 0.0021912 0 112 101
0.609256 0.0110786 0.00794667 0 112 101
0.745032 -0.104064 -0.00218278 0 112 101
0.471172 -0.179307 -0.00238659 0 112 101
0.657072 -0.167992 -0.00387962 0 112 101
0.424157 0.229838 0.00537837 0 112 101
0.343014 0.128441 0.00657968 0 112 101
0.603288 0.181889 -0.00315396 0 112 101
0.233771 0.059999 0.00974063 0 112 101
0.743764 0.164121 -0.00844824 0 112 101
0.596345 -0.193045 0.00276246 0 112 101
0.57249 0.144947 0.0012541 0 112 101
0.339046 0.0315644 -0.00752755 0 112 101
0.314352 0.0889283 -0.00170931 0 112 101
0.252972 -0.122586 0.00204337 0 112 101
0.452949 0.108284 0.00687894 0 112 101
0.53626 -0.0669278 0.00841152 0 112 101
0.623553 -0.123725 -0.00178098 0 112 101
0.323004 0.188632 0.00780504 0 112 101
0.313951 -0.0947676 0.0087783 0 112 101
0.788349 -0.186197 -0.00615801 0 112 101
0.768988 -0.121901 -0.00309524 0 112 101
0.774149 0.0677825 -0.00300132 0 112 101
0.764316 -0.0151592 -0.00927719 0 112 101
0.410396 0.24019 -0.00651565 0 112 101
0.594168 0.135952 -0.00386149 0 112 101
0.741567 -0.0726321 -0.00306568 0 112 101
0.79586 -0.294 -0.00747861 0 112 101
0.594933 0.269086 0.00414236 0 112 101
0.31001 0.239173 -0.00631581 0 112 101
0.339622 0.259928 0.00598714 0 112 101
0.227414 -0.101008 -0.00409826 0 112 101
0.56495 -0.164526 -0.0079551 0 112 101
0.500479 -0.214067 0.00270078 0 112 101
0.453492 0.283065 -0.00445049 0 112 101
0.413056 0.247961 0.008589 0 112 101
0.762074 0.224328 -0.00334424 0 112 101
0.416726 -0.216091 0.00415265 0 112 101
0.790972 0.214325 -0.00359149 0 112 101
0.658425 0.022578 -0.00943213 0 112 101
0.758763 0.170268 0.00717919 0 112 101
0.435976 -0.2737 -0.00895953 0 112 101
0.531011 -0.220294 -0.00997423 0 112 101
0.524154 0.139649 0.00389935 0 112 101
0.62263 0.24734 0.0073314 0 112 101
0.565503 0.146745 -0.00716703 0 112 101
0.266594 -0.0783846 -0.00530521 0 112 101
0.575588 -0.229308 -0.00386146 0 112 101
0.294193 -0.0545637 0.0055696 0 112 101
0.330168 0.0485577 0.00067248 0 112 101
0.643875 -0.0977055 0.00206211 0 112 101
0.30775 -0.241725 -0.000592872 0 112 101
0.367711 0.0284193 -0.000235813 0 112 101
0.778796 0.196198 0.0024153 0 112 101
0.392185 -0.108169 0.00152956 0 112 101
0.605399 0.24952 0.0051893 0 112 101
0.384176 -0.145009 -0.000312712 0 112 101
0.62502 -0.298339 0.00284831 0 112 101
0.644783 0.242104 -0.00753678 0 112 101
0.656555 0.189473 0.00574964 0 112 101
0.675457 -0.253513 0.00535931 0 112 101
0.265088 0.284852 -0.00906513 0 112 101
0.487823 -0.190698 0.0014766 0 112 101
0.558739 -0.111142 0.000214946 0 112 101
0.772342 0.208856 0.00662257 0 112 101
0.545658 0.214124 -0.00937269 0 112 101
0.321065 0.000803153 0.0074102 0 112 101
0.201963 0.0315691 -0.00266753 0 112 101
0.404385 0.0945891 0.00475637 0 112 101
0.795186 -0.070057 -0.00586883 0 112 101
0.324147 0.147035 -0.000981306 0 112 101
0.746056 -0.0709046 0.00678823 0 112 101
0.605127 -0.111714 0.00226126 0 112 101
0.625439 0.0246544 -0.00459572 0 112 101
0.761673 0.206107 0.00210284 0 112 101
0.483511 -0.0585905 0.0033545 0 112 101
0.452597 0.0353632 0.00258279 0 112 101
0.396505 -0.186562 -0.00784645 0 112 101
0.708088 -0.0570474 -0.0041132 0 112 101
0.786747 0.299924 -0.00455173 0 112 101
0.77143 0.0628286 0.000350458 0 112 101
0.43122 0.188564 -0.00205494 0 112 101
0.754888 0.258674 0.00663699 0 112 101
0.749711 0.152813 -0.0015301 0 112 101
0.336422 -0.0756385 -0.00949022 0 112 101
0.471066 0.117864 0.00990769 0 112 101
0.47761 -0.101664 -0.00553056 0 112 101
0.495463 0.126494 -0.00517189 0 112 101
0.448728 -0.0640593 0.00879126 0 112 101
0.241834 0.119803 0.00519974 0 112 101
0.77338 0.0646812 -0.00205902 0 112 101
0.511637 -0.0756367 -0.0052453 0 112 101
0.794481 0.278794 0.000940908 0 112 101
0.643029 0.193507 -0.00577171 0 112 101
0.25746 -0.122121 0.00557544 0 112 101
0.599354 0.0264494 -0.00713161 0 112 101
0.586693 0.153788 -0.000301096 0 112 101
0.239891 0.0313554 -0.00521427 0 112 101
0.212793 0.299918 -0.0068891 0 112 101
0.799285 -0.220624 0.00892803 0 112 101
0.724438 0.274493 0.00948514 0 112 101
0.739578 -0.193945 0.00785822 0 112 101
0.570491 0.193505 -0.00232072 0 112 101
0.579047 -0.0873826 -0.00727857 0 112 101
0.358885 0.148078 -0.00607502 0 112 101
0.240191 -0.2556 0.0045692 0 112 101
0.306899 0.173674 -0.00588448 0 112 101
0.421591 0.09305 0.00191261 0 112 101
0.29958 0.191272 0.0035956 0 112 101
0.756926 -0.138531 -0.00513164 0 112 101
0.491999 0.259153 0.00276191 0 112 101
0.43903 -0.199131 -0.00690917 0 112 101
0.321976 -0.283065 -0.00253672 0 112 101
0.277036 0.217423 0.00332581 0 112 101
0.45009 0.231578 0.00458386 0 112 101
0.329771 0.19085 0.00748923 0 112 101
0.739057 -0.10349 0.000125547 0 112 101
0.560266 0.0568997 -0.00339012 0 112 101
0.673535 0.173857 -0.00223604 0 112 101
0.404408 -0.102024 0.00617825 0 112 101
0.644791 0.270797 -0.00617043 0 112 101
0.589764 -0.117305 0.0030375 0 112 101
0.217562 -0.20242 -0.00939551 0 112 101
0.594979 0.204521 0.00014593 0 112 101
0.499513 -0.131894 0.00801009 0 112 101
0.578774 0.0329288 -0.00298672 0 112 101
0.748177 0.144953 0.00292496 0 112 101
0.323208 0.0764331 0.00788847 0 112 101
0.454182 -0.0869682 0.00285474 0 112 101
0.25446 0.0321929 -0.000782164 0 112 101
0.43315 -0.00766575 0.00118152 0 112 101
0.51923 -0.0471936 0.00114049 0 112 101
0.323322 -0.0209223 0.00765176 0 112 101
0.363992 0.0656779 0.00186957 0 112 101
0.650551 -0.12881 -0.00516293 0 112 101
0.445517 0.0585104 -0.00367309 0 112 101
0.221064 -0.231653 -0.000203992 0 112 101
0.747569 -0.164525 -0.00480561 0 112 101
0.750128 -0.262195 -0.00790622 0 112 101
0.434146 0.111183 -0.00866954 0 112 101
0.204136 0.161858 0.00839642 0 112 101
0.485167 -0.0222042 0.00189582 0 112 101
0.493097 -0.231242 0.00856853 0 112 101
0.288639 -0.00602683 -0.00502666 0 112 101
0.222351 -0.0194132 0.00967718 0 112 101
0.504767 0.199836 -0.00517651 0 112 101
0.67718 0.179311 0.00972667 0 112 101
0.412597 0.155593 0.00306112 0 112 101
0.433792 0.117245 -0.000470733 0 112 101
0.505594 0.01642 0.00973858 0 112 101
0.584067 0.239912 -0.000915756 0 112 101
0.478864 0.11253 0.00907172 0 112 101
0.5975 -0.0012639 -0.000277429 0 112 101
0.460158 0.244511 0.00571138 0 112 101
0.543865 0.14491 0.00176912 0 112 101
0.210692 -0.00747424 -0.000155862 0 112 101
0.765395 -0.0351103 0.00050126 0 112 101
0.723617 0.0909512 -0.0020042 0 112 101
0.304408 0.068865 0.00575344 0 112 101
0.320461 0.0973228 0.00479828 0 112 101
0.362352 -0.113899 -0.00784363 0 112 101
0.27147 -0.174608 -0.0067929 0 112 101
0.708604 -0.238666 -0.00033297 0 112 101
0.236504 0.0216947 -0.00771317 0 112 101
0.341799 0.0823816 0.00363808 0 112 101
0.598213 0.287799 -0.00150861 0 112 101
0.728896 0.116172 -0.00696171 0 112 101
0.705215 0.146538 -0.000751135 0 112 101
0.57653 0.0347909 0.00290498 0 112 101
0.554637 0.155555 0.00700727 0 112 101
0.344744 0.26841 0.00418888 0 112 101
0.796816 -0.210964 -0.0015615 0 112 101
0.437076 0.000450803 -0.00295791 0 112 101
0.758291 -0.118719 0.00386411 0 112 101
0.29919 0.0321894 -0.00177292 0 112 101
0.302025 -0.0734127 0.0011171 0 112 101
0.521717 0.252879 -0.00846992 0 112 101
0.354408 -0.108227 0.00619098 0 112 101
0.519337 0.193154 -0.00612095 0 112 101
0.539814 0.0569921 -0.00879607 0 112 101
0.234337 -0.0269685 0.00649315 0 112 101
0.238767 0.0554509 -0.0064149 0 112 101
0.449097 -0.164593 -0.006729 0 112 101
0.774645 -0.24186 0.000493032 0 112 101
0.326301 0.234373 -0.00845248 0 112 101
0.649521 -0.271585 0.00709134 0 112 101
0.692302 0.13492 0.000780759 0 112 101
0.694728 -0.0444018 0.000403515 0 112 101
0.661024 0.00908654 0.00613677 0 112 101
0.35758 0.220187 -0.00930401 0 112 101
0.584531 -0.178337 0.00478908 0 112 101
0.558332 -0.16738 0.00081812 0 112 101
0.407236 -0.0648804 -0.00654413 0 112 101
0.579315 0.0442153 0.00345174 0 112 101
0.459207 0.0960023 -0.00919749 0 112 101
0.271666 -0.144901 0.00337923 0 112 101
0.457558 0.150299 0.00914904 0 112 101
0.320817 -0.0439606 -0.00300911 0 112 101
0.784943 -0.140647 0.00983928 0 112 101
0.446659 0.238654 -0.00574712 0 112 101
0.4964 0.154677 -0.00712665 0 112 101
0.251497 0.101277 -0.000728349 0 112 101
0.466595 -0.139581 6.97797e-05 0 112 101
0.659033 0.0758435 -0.00537914 0 112 101
0.652107 0.105117 0.00111266 0 112 101
0.680208 -0.104408 0.0054928 0 112 101
0.644045 -0.247645 -0.00195217 0 112 101
0.754226 0.260127 0.00366502 0 112 101
0.208269 -0.101641 0.00784592 0 112 101
0.602032 0.0748548 0.00397778 0 112 101
0.460205 -0.190075 -0.00682742 0 112 101
0.322072 0.268063 -0.00856127 0 112 101
0.714355 -0.0265458 -0.00870492 0 112 101
0.666144 0.0726412 0.00319338 0 112 101
0.784896 -0.111833 -0.00637441 0 112 101
0.36358 -0.265606 -0.00635234 0 112 101
0.233952 0.244286 -0.00063325 0 112 101
0.580947 0.11377 -0.000470323 0 112 101
0.704356 0.140965 -0.00123494 0 112 101
0.229255 -0.0851022 -0.00249627 0 112 101
0.766252 -0.236391 -0.00650143 0 112 101
0.341939 -0.118722 -0.00160303 0 112 101
0.722071 -0.275205 -0.00250786 0 112 101
0.657873 -0.1424 0.00609186 0 112 101
0.544755 -0.0960686 0.00396319 0 112 101
0.555434 -0.260798 -0.00105104 0 112 101
0.766569 -0.043988 0.00249764 0 112 101
0.366422 0.267991 -0.00694704 0 112 101
0.589894 -0.196374 -0.000992719 0 112 101
0.49815 0.0683331 -0.000180126 0 112 101
0.582743 -0.292387 0.00776922 0 112 101
0.327563 0.181867 -0.00816681 0 112 101
0.662848 0.209938 -0.0023112 0 112 101
0.686671 -0.0378127 0.00024479 0 112 101
0.322831 -0.210305 0.00573534 0 112 101
0.550033 -0.0601148 0.00651905 0 112 101
0.679803 -0.153318 0.00242647 0 112 101
0.430809 0.120104 -0.00341778 0 112 101
0.574367 -0.177364 0.00286426 0 112 101
0.673803 0.122812 0.00422783 0 112 101
0.226484 0.230451 -0.00860748 0 112 101
0.249642 -0.24054 -0.00327629 0 112 101
0.522177 -0.246103 -0.00998715 0 112 101
0.303864 0.127743 -0.00330372 0 112 101
0.501565 0.120051 0.00541246 0 112 101
0.673692 -0.081547 -0.00592311 0 112 101
0.400128 0.166494 -0.00902901 0 112 101
0.506299 0.143815 -0.00645438 0 112 101
0.478904 0.094812 -0.00634386 0 112 101
0.555419 -0.121592 -0.00893822 0 112 101
0.699212 -0.162356 -0.0052015 0 112 101
0.694106 0.0193509 -0.0092092 0 112 101
0.352355 -0.222615 0.000472463 0 112 101
0.218504 0.151521 0.00658971 0 112 101
0.205385 -0.196366 0.00494801 0 112 101
0.685928 0.193505 -0.00589757 0 112 101
0.696399 -0.221664 0.0068797 0 112 101
0.379163 -0.187542 0.0029433 0 112 101
0.225295 -0.133422 -0.000571387 0 112 101
0.420978 -0.180406 0.00313199 0 112 101
0.602077 -0.0987093 0.00881265 0 112 101
0.29352 -0.0983028 -0.000869127 0 112 101
0.725909 0.0716221 -0.00705791 0 112 101
0.459542 -0.0174464 0.00654997 0 112 101
0.365669 -0.197068 0.00519851 0 112 101
0.36442 0.0761659 -0.00810886 0 112 101
0.222051 -0.120427 0.00800338 0 112 101
0.617252 0.0218255 -0.00430327 0 112 101
0.728787 0.0202695 0.000250125 0 112 101
0.284176 -0.200171 0.00168567 0 112 101
0.414227 0.299085 -0.00209726 0 112 101
0.493207 0.119286 0.00697755 0 112 101
0.417847 0.206065 -0.00745783 0 112 101
0.642325 0.289803 -0.00914694 0 112 101
0.288696 0.103793 -0.000195907 0 112 101
0.59759 0.0473518 -0.00525814 0 112 101
0.214778 0.0159581 -0.00376065 0 112 101
0.741352 0.125202 -0.0070113 0 112 101
0.257709 0.0609084 0.00262034 0 112 101
0.208252 -0.187197 -0.00697491 0 112 101
0.687817 0.107048 0.00653681 0 112 101
0.361091 -0.272663 -0.00751867 0 112 101
0.499779 0.289761 -0.00899001 0 112 101
0.562181 0.0459884 -0.00201213 0 112 101
0.25906 -0.218719 0.00600744 0 112 101
0.289915 0.278894 -0.00629488 0 112 101
0.511252 -0.261386 -0.00909328 0 112 101
0.597707 0.226928 -0.00154244 0 112 101
0.317545 0.258943 -0.00115427 0 112 101
0.591473 0.164213 0.000404144 0 112 101
0.564292 0.0518931 0.0037873 0 112 101
0.613533 -0.139928 0.00371478 0 112 101
0.496422 -0.175527 -0.00417951 0 112 101
0.403519 -0.181814 0.00282436 0 112 101
0.666958 -0.229656 0.00625763 0 112 101
0.573345 -0.171358 -0.00249623 0 112 101
0.795777 -0.270903 0.00395108 0 112 101
0.34567 0.209233 0.00667176 0 112 101
0.564734 0.147978 -0.00155767 0 112 101
0.603745 0.225668 0.00995671 0 112 101
0.529369 0.206716 0.00740322 0 112 101
0.262208 0.217842 0.00651074 0 112 101
0.566705 -0.176408 -0.00122381 0 112 101
0.20309 0.202642 0.00829994 0 112 101
0.456214 -0.299664 0.000643935 0 112 101
0.498247 -0.103072 -0.00693233 0 112 101
0.717335 0.0598403 0.00962214 0 112 101
0.342798 0.12354 0.00525231 0 112 101
0.329728 0.268744 -0.00118032 0 112 101
0.337513 0.200767 -0.00527537 0 112 101
0.632356 -0.217806 0.00629051 0 112 101
0.202246 0.000822045 0.00962418 0 112 101
0.377917 -0.188539 0.00847916 0 112 101
0.600923 -0.124334 -0.00121129 0 112 101
0.215722 0.0184624 -0.00649295 0 112 101
0.596109 -0.120753 -0.00199135 0 112 101
0.332845 0.26855 0.000594734 0 112 101
0.569063 -0.118649 0.00273235 0 112 101
0.502467 -0.0585025 0.00377725 0 112 101
0.446768 0.00376296 0.00844945 0 112 101
0.292776 -0.185178 0.00481632 0 112 101
0.715324 0.0310134 -0.00606536 0 112 101
0.644768 0.0778274 -0.0084666 0 112 101
0.53708 0.155874 0.00477304 0 112 101
0.681622 -0.2377 0.00563197 0 112 101
0.221877 0.00908145 -0.00447749 0 112 101
0.692496 -0.0712578 0.00360677 0 112 101
0.524112 -0.0592266 0.00348906 0 112 101
0.208382 -0.114324 0.000960435 0 112 101
0.726208 -0.0202547 0.00469262 0 112 101
0.733127 0.291822 0.00793916 0 112 101
0.642272 -0.277019 -0.00232791 0 112 101
0.288837 0.0238271 -0.00221132 0 112 101
0.474333 -0.233776 -0.000400585 0 112 101
0.43269 0.0987404 -0.00157567 0 112 101
0.321487 0.0554895 0.00723224 0 112 101
0.757975 0.0481559 0.00616894 0 112 101
0.715541 0.0147729 0.0018951 0 112 101
0.330099 0.200915 0.00932093 0 112 101
0.60573 -0.223231 0.00391418 0 112 101
0.547813 -0.226559 0.00376338 0 112 101
0.200777 0.269723 0.00931235 0 112 101
0.541689 0.285377 0.00465295 0 112 101
0.650866 -0.0859273 0.00310177 0 112 101
0.380513 0.263079 0.0093634 0 112 101
0.552924 0.201039 -0.00782541 0 112 101
0.622201 -0.282141 -0.00490402 0 112 101
0.311052 -0.281303 -0.00948157 0 112 101
0.642836 -0.169239 -0.00280879 0 112 101
0.382696 -0.0127314 0.00649721 0 112 101
0.660536 -0.23883 0.0011912 0 112 101
0.489328 -0.123635 -0.00227366 0 112 101
0.385475 -0.188703 -0.00155858 0 112 101
0.761608 0.0923393 -0.00252327 0 112 101
0.242243 -0.00859378 0.00904668 0 112 101
0.650703 0.216249 -0.00502611 0 112 101
0.437422 0.228013 -0.00566591 0 112 101
0.5079 -0.180586 0.00506131 0 112 101
0.318417 0.184294 0.00533586 0 112 101
0.54229 0.100857 0.00728988 0 112 101
0.467633 0.0999494 -0.00565338 0 112 101
0.309725 -0.0182066 0.00697774 0 112 101
0.665847 0.109026 0.000140514 0 112 101
0.452512 0.165973 -0.00764266 0 112 101
0.608153 0.203374 0.00171171 0 112 101
0.710314 -0.281067 -0.00926955 0 112 101
0.360019 0.225663 -0.00218582 0 112 101
0.709594 -0.0824726 -0.00228442 0 112 101
0.22759 -0.0307462 0.00665835 0 112 101
0.487801 -0.136459 -0.00677677 0 112 101
0.642683 0.191259 0.00986604 0 112 101
0.797358 0.0444329 -0.00438924 0 112 101
0.667897 0.18609 0.00107061 0 112 101
0.758079 -0.204824 -0.00133509 0 112 101
0.659677 -0.233077 -0.00572298 0 112 101
0.379015 0.0545234 0.00619035 0 112 101
0.468111 -0.0497646 -0.00913028 0 112 101
0.75804 -0.294343 -0.00233606 0 112 101
0.534158 0.06076 -0.00656441 0 112 101
0.291821 -0.230012 -2.89598e-05 0 112 101
0.746859 -0.190002 0.00948842 0 112 101
0.371851 0.172415 -0.00733493 0 112 101
0.35761 -0.060968 -0.00141027 0 112 101
0.471937 -0.197241 0.00385341 0 112 101
0.648259 -0.118899 0.00732581 0 112 101
0.425922 -0.0864053 -0.00618998 0 112 101
0.471842 -0.243493 -0.00904848 0 112 101
0.706361 -0.289178 -0.00063587 0 112 101
0.717025 -0.188806 -0.0071807 0 112 101
0.393962 0.259693 0.00458905 0 112 101
0.514845 -0.130867 -0.00127244 0 112 101
0.572925 -0.0893139 -0.00542237 0 112 101
0.262927 0.160044 0.00722022 0 112 101
0.617421 0.0617047 0.00156664 0 112 101
0.424513 0.0829119 0.001529 0 112 101
0.590922 0.0646644 -0.00196774 0 112 101
0.71284 0.171903 0.00246587 0 112 101
0.360881 0.258345 -0.00319224 0 112 101
0.774651 -0.206741 -0.000520631 0 112 101
0.309103 -0.185202 -0.000809185 0 112 101
0.356734 0.0894765 0.00838095 0 112 101
0.601221 -0.296844 0.00312034 0 112 101
0.698403 -0.230616 -0.00370387 0 112 101
0.417435 0.137412 0.00244053 0 112 101
0.403922 -0.119141 0.00787754 0 112 101
0.75341 0.000168072 0.00683043 0 112 101
0.782548 -0.182291 -0.00665927 0 112 101
0.538679 0.228674 -0.00946654 0 112 101
0.307028 -0.109936 -0.00226228 0 112 101
0.398778 -0.280992 -0.000456955 0 112 101
0.562816 0.0607679 0.0093782 0 112 101
0.663755 0.246348 -0.00564126 0 112 101
0.414567 0.240423 -0.00500195 0 112 101
0.414385 0.151511 -0.00963053 0 112 101
0.529681 0.280462 0.000811486 0 112 101
