ply
format ascii 1.0
comment Created by Open3D
element vertex 1197
property double x
property double y
property double z
property uchar red
property uchar green
property uchar blue
end_header
0.43638 -0.0476776 0.119798 166 97 81
0.672472 0.0360154 0.0176373 141 116 68
0.442632 -0.0614295 0.117593 185 132 116
0.674842 0.0269976 0.0158602 218 212 159
0.500528 0.201699 0.0687631 41 27 27
0.518861 0.158202 0.0653576 71 68 57
0.433466 -0.0403064 0.118428 151 73 53
0.665616 0.044574 0.0163387 164 140 105
0.453108 -0.0720303 0.112464 245 185 178
0.431614 -0.0328149 0.116576 133 64 48
0.461505 -0.0902142 0.109831 252 202 188
0.631591 -0.0328498 0.0344661 208 198 132
0.642043 -0.0594406 0.0327358 154 150 7
0.66452 0.0317341 0.013094 221 214 168
0.633205 -0.0422545 0.0332857 183 177 47
0.496923 0.191439 0.0651283 30 28 31
0.501982 0.175249 0.0646436 128 110 94
0.635511 -0.0525748 0.0319312 176 172 26
0.510796 0.149892 0.0620348 55 41 41
0.446995 -0.0663482 0.110679 219 171 160
0.455467 -0.0792871 0.108454 251 187 178
0.602466 -0.171842 0.0564471 222 193 188
0.605035 -0.179982 0.0562018 195 152 152
0.604153 -0.189749 0.0575631 180 131 127
0.600924 -0.164277 0.0551855 222 179 176
0.439754 -0.0563291 0.110799 193 130 115
0.620793 -0.030988 0.0316159 197 190 67
0.642259 -0.0644895 0.0260703 135 134 2
0.434778 -0.0440461 0.110652 167 101 83
0.654233 0.0275836 0.00969828 248 226 178
0.623139 -0.0428874 0.0304618 190 184 51
0.627684 -0.0505489 0.02935 178 177 39
0.593985 -0.151023 0.0532814 248 198 200
0.594291 -0.159217 0.0540429 237 171 173
0.594448 -0.174183 0.0544911 202 157 164
0.45243 -0.0727734 0.103368 249 185 176
0.61683 -0.0372604 0.0282895 203 196 57
0.632926 -0.0588711 0.0237616 152 146 11
0.442908 -0.061263 0.104279 182 132 118
0.618596 -0.0477235 0.0258813 175 169 34
0.596868 -0.193608 0.0523304 150 94 95
0.432783 -0.0328338 0.104417 130 64 46
0.623407 -0.0535763 0.0230401 161 153 21
0.579137 -0.148868 0.0537523 250 194 198
0.437392 -0.0504957 0.103506 173 104 88
0.615845 -0.00109522 0.0186736 172 155 112
0.609928 -0.0132411 0.0227458 198 188 122
0.611502 -0.0323528 0.0243404 228 213 67
0.586316 -0.154623 0.0501311 251 181 187
0.589938 -0.165668 0.049853 227 165 165
0.595327 -0.183721 0.0496335 154 94 97
0.612337 -0.0421413 0.0237263 190 182 33
0.447371 -0.06672 0.0991057 214 176 165
0.459118 -0.0892914 0.0956841 252 199 186
0.605182 -0.0236374 0.0217773 221 215 85
0.454188 -0.0786915 0.0956051 251 187 178
0.602438 -0.0157171 0.0191088 182 179 70
0.62948 -0.0581669 0.0122951 121 118 6
0.59437 -0.190738 0.0453708 155 96 95
0.439885 -0.0561635 0.0972525 180 137 124
0.608169 0.00477582 0.0123458 143 111 69
0.62186 -0.0534927 0.0137177 128 127 10
0.578712 -0.155108 0.0467488 250 183 188
0.590126 -0.176568 0.0443419 162 116 117
0.435255 -0.0444636 0.0968462 151 102 98
0.602861 -0.0350605 0.0185607 193 190 40
0.603536 -0.00630142 0.0129428 119 105 63
0.600027 -0.0276052 0.0174343 188 187 55
0.571468 -0.151477 0.0473178 250 190 195
0.43434 -0.0277256 0.0929975 115 65 53
0.444077 -0.0621968 0.0931809 188 138 126
0.607052 -0.0425689 0.0147711 142 132 23
0.613963 -0.0487905 0.0124096 119 115 15
0.59579 -0.0192285 0.015366 97 82 49
0.553542 -0.164715 0.0541747 249 182 187
0.452276 -0.0705749 0.0875333 238 188 176
0.433522 -0.0354027 0.0903691 122 72 60
0.434892 -0.0211968 0.0866206 97 59 48
0.458809 -0.089764 0.0852164 252 199 183
0.549007 -0.142507 0.0498615 248 185 189
0.558104 -0.150164 0.0466369 251 195 199
0.556148 -0.158888 0.0477434 248 185 189
0.437215 -0.0499317 0.0876958 150 102 91
0.443461 -0.0620002 0.0854878 187 137 125
0.433542 -0.0296856 0.0843533 113 65 51
0.456082 -0.0811083 0.0812648 251 187 175
0.553073 -0.144822 0.0437604 222 176 177
0.453682 -0.0724977 0.0800979 252 182 175
0.434643 -0.0385475 0.0831157 129 65 53
0.4485 -0.0661982 0.0806427 221 173 162
0.562856 -0.156408 0.0384983 230 163 168
0.534566 -0.0898197 0.0395561 134 133 93
0.560358 -0.147007 0.0359419 213 163 168
0.568258 -0.152351 0.0317024 206 156 156
0.430139 -0.0246753 0.0789325 129 122 91
0.438542 -0.0507895 0.0769538 160 110 98
0.522708 -0.090465 0.0408705 148 131 91
0.551777 -0.14296 0.0349723 151 95 102
0.43267 -0.0331088 0.0758916 115 67 53
0.442905 -0.0609626 0.0743968 183 135 121
0.455888 -0.0769008 0.0704862 251 187 178
0.503477 -0.157212 0.0599422 151 115 115
0.532861 -0.0922376 0.0311717 109 108 68
0.559235 -0.144025 0.026653 242 204 208
0.571556 -0.153122 0.0218688 150 100 100
0.513326 -0.0920652 0.0401163 145 124 82
0.450372 -0.0676922 0.0675484 231 178 165
0.432675 -0.0282859 0.0686113 122 70 48
0.435273 -0.0377072 0.0689665 127 71 50
0.437216 -0.0462487 0.0695061 147 104 88
0.499249 -0.165131 0.0585726 145 110 100
0.564984 -0.148077 0.0208032 237 206 209
0.514729 -0.208162 0.0582908 181 17 13
0.518921 -0.0929219 0.033798 118 117 77
0.493368 -0.172678 0.0620946 213 185 186
0.490305 -0.0818887 0.0457803 251 215 171
0.453736 0.0182011 0.0452875 111 105 68
0.447554 -0.0606748 0.0635093 215 172 159
0.506216 -0.195581 0.0576237 172 7 7
0.439957 -0.0526277 0.0649893 170 120 103
0.524684 -0.0925969 0.0270563 106 105 65
0.534032 -0.0918659 0.0218889 94 93 53
0.490598 -0.188498 0.0637153 139 52 54
0.44853 0.00810839 0.046344 101 93 56
0.445261 -0.00222084 0.050136 93 75 44
0.504099 -0.094464 0.0361695 128 122 85
0.437022 -0.0389499 0.0606872 135 76 57
0.491296 -0.180909 0.0590419 130 102 103
0.444297 0.0166587 0.0445231 106 95 61
0.495782 -0.196342 0.0587001 232 163 165
0.484604 -0.0895495 0.0424371 251 208 167
0.516031 -0.0936212 0.0259248 108 107 67
0.371876 0.0610878 0.0731639 119 0 13
0.439546 -0.0239068 0.0529376 122 72 42
0.495279 -0.16463 0.0506553 131 103 92
0.4926 -0.172748 0.0537905 132 103 96
0.495363 -0.207209 0.0592644 249 211 218
0.493532 -0.215002 0.0618632 248 212 233
0.364461 0.0615595 0.076068 125 0 12
0.437822 -0.0340088 0.0548309 134 77 50
0.452904 -0.0586441 0.0514894 223 173 156
0.436045 0.0158766 0.0443619 119 101 70
0.438704 0.0079246 0.0445225 121 103 69
0.43708 -0.0453981 0.0564899 148 89 70
0.443037 -0.0563174 0.05542 189 137 118
0.494574 -0.0962976 0.0348645 128 121 80
0.534661 -0.0916932 0.0114716 86 85 45
0.372356 0.0524832 0.0713006 151 0 14
0.439397 -0.0156437 0.0478591 85 63 30
0.356936 0.0608303 0.0771304 117 0 6
0.379631 0.0507556 0.0664322 154 0 11
0.438709 -0.00233788 0.0442671 95 78 40
0.487688 -0.193383 0.0569895 118 101 101
0.489313 -0.201393 0.0577648 117 102 107
0.348758 0.0711241 0.0784788 85 0 13
0.459198 -0.0684208 0.0455474 206 135 109
0.501745 -0.0957265 0.0260303 121 120 80
0.358793 0.0533769 0.0743836 124 0 10
0.38472 0.0475922 0.0607708 73 30 17
0.426501 0.0118141 0.0445939 132 111 69
0.430297 0.00236383 0.0444739 114 93 57
0.435519 -0.0271275 0.046756 97 63 28
0.435951 -0.0393014 0.0491834 129 81 53
0.488778 -0.18414 0.0505719 119 98 97
0.339839 0.0731186 0.0787855 77 1 0
0.348768 0.0596826 0.0765949 98 0 6
0.367491 0.0446772 0.0690795 166 0 14
0.484926 -0.0970678 0.0325115 140 119 77
0.359673 0.0458129 0.0722671 158 0 15
0.42925 -0.00712556 0.0436276 127 96 57
0.381513 0.0403557 0.0596347 147 0 9
0.430755 -0.0199814 0.044477 130 96 59
0.447235 -0.0652043 0.0450646 185 130 90
0.464354 -0.0824142 0.0389431 252 203 167
0.372956 0.041044 0.0633619 185 65 77
0.420178 0.00215437 0.0444841 134 105 61
0.438997 -0.0562728 0.0467587 163 114 75
0.504681 -0.154551 0.0305853 105 91 74
0.495641 -0.164041 0.0380642 124 102 95
0.334163 0.0794732 0.0762944 66 11 21
0.347793 0.0482141 0.0754453 132 0 11
0.413191 0.0122471 0.0451082 153 126 86
0.431051 -0.0347686 0.0453912 140 99 64
0.434289 -0.0463162 0.0461386 146 108 62
0.470116 -0.0987359 0.0370556 213 181 136
0.488467 -0.193928 0.0481457 116 99 99
0.337189 0.0661038 0.0765073 83 0 3
0.458056 -0.0760388 0.037827 249 201 168
0.492243 -0.175144 0.0405792 125 98 93
0.35488 0.0388128 0.0712787 170 0 19
0.403772 0.0191271 0.0467442 129 122 91
0.418655 -0.00803524 0.0442421 130 99 60
0.450577 -0.0724349 0.0403161 211 186 141
0.376778 0.0345655 0.0580865 217 140 148
0.411163 0.00417676 0.044679 141 110 71
0.42357 -0.0268232 0.0445842 136 102 65
0.437578 -0.0642746 0.0450577 176 131 86
0.337317 0.0539041 0.0760884 116 0 8
0.366543 0.0332865 0.0634193 191 8 26
0.490829 -0.209492 0.0465911 121 115 120
0.346971 0.0402896 0.0724653 157 0 18
0.418159 -0.0180955 0.043476 139 107 65
0.476437 -0.0991997 0.0277718 161 140 98
0.327537 0.0728693 0.0752873 68 1 0
0.331772 0.0600416 0.0758331 95 0 8
0.358515 0.0327077 0.0662259 181 0 26
0.409674 -0.00454959 0.0441924 131 100 61
0.43085 -0.0586936 0.0444885 160 121 79
0.452242 -0.0916994 0.0395131 245 200 167
0.456416 -0.0987324 0.0386863 212 176 132
0.49 -0.18525 0.0393131 118 97 96
0.48849 -0.201794 0.0442536 113 100 105
0.498503 -0.161609 0.0273239 106 100 88
0.33907 0.0432365 0.0733754 141 0 15
0.379507 0.0302658 0.0517748 167 0 13
0.415355 -0.0264124 0.0438063 141 107 70
0.421435 -0.0416997 0.0438589 146 108 72
0.425145 -0.0523792 0.0442258 155 116 77
0.434469 -0.0734466 0.0437185 192 163 116
0.441465 -0.0742906 0.0396349 210 186 146
0.494161 -0.170685 0.0311585 121 99 92
0.371143 0.0294096 0.0559961 177 0 23
0.402675 0.012689 0.0407323 90 37 21
0.429257 -0.067111 0.0442665 174 135 96
0.349235 0.0339807 0.0672902 173 0 23
0.463389 -0.100807 0.0305267 206 178 128
0.408381 -0.0134412 0.0414543 89 67 37
0.448071 -0.0823402 0.0342542 237 199 166
0.488083 -0.195664 0.0381379 108 94 94
0.403547 0.00227146 0.0393047 84 41 22
0.417437 -0.0503914 0.0441111 148 116 74
0.42207 -0.0622803 0.0442601 160 121 82
0.445471 -0.0993664 0.0391298 227 185 140
0.324582 0.059456 0.072965 90 0 10
0.341076 0.0352511 0.0677962 162 0 23
0.36138 0.0277806 0.0569285 210 118 127
0.408435 -0.0226738 0.0403771 77 59 28
0.411294 -0.0364063 0.042151 88 75 46
0.491543 -0.179484 0.0287845 115 95 87
0.321358 0.0681374 0.0705937 58 8 8
0.398699 0.0165301 0.0351136 79 45 29
0.421989 -0.0740252 0.0441409 184 148 104
0.48935 -0.203988 0.0355777 114 108 113
0.491538 -0.212573 0.0364458 127 121 126
0.33043 0.0440263 0.0701225 143 0 18
0.351883 0.029321 0.0603523 234 139 147
0.489638 -0.18946 0.0305666 109 95 92
0.32488 0.0508389 0.070797 115 0 15
0.405066 -0.00754317 0.0350753 72 45 24
0.411672 -0.0459764 0.0411163 74 64 38
0.414871 -0.0579673 0.0411867 85 72 46
0.365638 0.0271342 0.0487866 169 0 12
0.373735 0.0303032 0.0426949 154 0 10
0.470551 -0.101084 0.0158419 179 154 109
0.343661 0.030718 0.0609337 183 25 44
0.400992 0.0126383 0.0286786 73 35 24
0.419434 -0.0906432 0.0449948 208 174 139
0.448688 -0.103278 0.0294696 202 177 129
0.407865 -0.032324 0.0354009 61 50 30
0.476799 -0.101068 0.00943744 142 136 99
0.493956 -0.173114 0.0181425 79 75 71
0.379736 0.0327295 0.0345848 102 42 35
0.40354 0.000770664 0.0278887 73 39 23
0.406537 -0.0172365 0.0309381 66 49 27
0.41716 -0.0818423 0.0419619 95 84 64
0.430676 -0.102785 0.0389384 210 175 127
0.409825 -0.0405051 0.0341367 64 56 35
0.414308 -0.066075 0.0383615 76 72 49
0.421955 -0.100084 0.0428715 124 83 54
0.492133 -0.181734 0.0196038 93 86 83
0.331322 0.0349287 0.0635667 148 0 19
0.489961 -0.20316 0.0260419 102 101 101
0.319073 0.0674522 0.061366 31 20 16
0.347945 0.027297 0.0536415 167 0 21
0.407151 -0.0257296 0.0294424 64 53 36
0.461058 -0.102282 0.0154696 208 179 132
0.49015 -0.190087 0.0211835 94 90 86
0.400811 0.0210361 0.0190747 55 49 51
0.405034 -0.00967051 0.025081 66 45 28
0.49357 -0.216162 0.0253562 128 126 132
0.319392 0.0490406 0.0642782 82 0 9
0.323885 0.0402315 0.0638192 135 0 15
0.411437 -0.0523127 0.0319492 65 61 38
0.414607 -0.0746259 0.0362873 78 70 49
0.31741 0.0580031 0.0619299 23 20 6
0.359893 0.0273214 0.0422859 147 0 14
0.469255 -0.102862 0.00666302 176 168 131
0.371169 0.0322802 0.0320566 186 0 12
0.402611 0.00807481 0.017914 65 40 24
0.440927 -0.104318 0.0250672 206 181 136
0.339926 0.0278672 0.0533967 152 0 14
0.351604 0.0260227 0.0460103 148 0 12
0.40397 -0.00278282 0.0189751 66 45 28
0.406657 -0.0223082 0.0217579 59 49 35
0.410386 -0.0438923 0.0256621 61 57 34
0.41296 -0.0625443 0.0294784 65 64 43
0.415437 -0.0824466 0.033735 82 74 53
0.448686 -0.103602 0.017365 209 184 139
0.363255 0.0297434 0.0346554 182 8 0
0.408154 -0.0319176 0.0224405 56 53 36
0.426399 -0.105323 0.0309784 201 173 123
0.324598 -0.0325589 0.078095 180 32 0
0.328167 -0.0401026 0.0779322 204 34 0
0.405488 -0.0132112 0.0162233 60 49 32
0.410957 -0.0514943 0.0230046 61 60 39
0.414398 -0.0726007 0.0271155 71 70 49
0.418238 -0.09974 0.0328068 89 79 55
0.327583 0.0337013 0.0536152 125 0 12
0.371518 0.0329943 0.0219482 250 47 0
0.4001 0.0138027 0.00790959 47 44 30
0.317873 0.0399912 0.0563028 106 0 10
0.401833 -0.000214634 0.00983751 54 46 27
0.454379 -0.104968 0.00583327 184 167 129
0.304919 -0.0115663 0.0807576 75 0 4
0.403565 -0.00873498 0.0100728 55 49 34
0.409747 -0.0402635 0.0157065 58 55 38
0.41471 -0.0810865 0.0251527 75 74 53
0.416322 -0.0914478 0.0273016 79 75 52
0.434054 -0.105691 0.0192776 207 182 137
0.317223 -0.0299853 0.0769899 184 35 0
0.383218 0.0465163 0.00563232 148 29 0
0.404294 -0.0179697 0.0100588 51 48 34
0.406862 -0.0268684 0.011092 54 51 34
0.327695 -0.0467103 0.0703432 251 61 0
0.441787 -0.106389 0.00724113 208 186 141
0.306674 -0.0190217 0.075516 212 44 0
0.418067 -0.100916 0.021581 83 80 54
0.434913 -0.105942 0.0109662 209 182 142
0.425246 -0.105776 0.0168721 202 175 138
0.375313 0.0388943 0.00351729 195 31 0
0.306969 -0.0309703 0.0757094 96 21 0
0.318837 -0.0495953 0.0732959 65 37 38
0.310798 -0.0433501 0.0762358 181 32 0
0.330522 -0.0467327 0.060804 230 48 0
0.37325 0.0285623 0.00222386 98 22 0
0.293065 -0.0135677 0.0755354 194 38 0
0.297243 -0.0231848 0.0757869 46 11 0
0.428995 -0.107873 0.00591243 191 187 164
0.419241 -0.10343 0.010628 96 86 60
0.285873 -0.00946877 0.0768352 52 28 28
0.309478 -0.0523059 0.0733665 66 64 77
0.296807 -0.0331424 0.0752577 100 27 0
0.36505 0.021185 0.00231255 162 33 5
0.29779 -0.0452254 0.0763535 130 60 50
0.315478 -0.0562715 0.0657044 58 38 33
0.445649 -0.199374 0.0171092 246 35 28
0.286591 -0.0245863 0.0756299 63 8 0
0.356366 0.015416 0.00386637 219 42 0
0.278927 -0.0139857 0.0758874 81 18 22
0.32001 -0.051282 0.0564986 169 58 5
0.437246 -0.171953 0.00925263 36 33 46
0.440982 -0.18615 0.0117688 67 56 78
0.454327 -0.204068 0.00801457 125 124 139
0.300995 -0.0564083 0.0728924 66 64 74
0.28764 -0.0337332 0.0739151 27 14 7
0.436743 -0.193368 0.0160143 186 33 22
0.279199 -0.0215876 0.0750869 208 40 0
0.294072 -0.0533104 0.0755597 45 38 35
0.287978 -0.0456077 0.0766095 201 27 0
0.430866 -0.180623 0.0127552 250 144 1
0.279841 -0.0396649 0.0766429 208 43 0
0.42409 -0.171182 0.0104773 243 124 32
0.444321 -0.203523 0.00691854 136 76 69
0.27364 -0.0271252 0.0749157 63 17 21
0.286301 -0.054919 0.0750121 48 46 49
0.425181 -0.19239 0.0153894 249 46 33
0.434404 -0.200164 0.00987257 251 40 33
0.416564 -0.16447 0.00788612 156 96 0
0.278622 -0.0490421 0.0756801 46 40 42
0.415333 -0.188792 0.0164541 249 64 54
0.271797 -0.0431242 0.0730958 35 22 27
0.424666 -0.197628 0.00730533 115 62 52
0.399145 -0.151238 0.00801306 235 193 50
0.404894 -0.188086 0.0195592 212 85 97
0.266947 -0.025376 0.0667542 27 23 19
0.409045 -0.191202 0.0124797 248 60 55
0.415366 -0.19519 0.00762504 107 68 66
0.275292 -0.049018 0.0657838 25 23 29
0.267485 -0.0365015 0.0661447 24 22 25
0.39688 -0.186214 0.0164683 249 63 63
0.369882 -0.152734 0.0225507 169 145 120
0.386242 -0.182401 0.0189087 199 128 67
0.403646 -0.190932 0.00664265 101 72 65
0.359362 -0.150523 0.0229567 116 100 187
0.377413 -0.180147 0.0197208 167 152 76
0.391428 -0.186731 0.00945358 239 37 28
0.228606 0.0281411 0.00200091 0 112 101
0.518293 -0.205207 -0.00489836 0 112 101
0.607756 0.124768 -0.0082985 0 112 101
0.48916 -0.104967 -0.00664484 0 112 101
0.228654 0.095926 -0.00435726 0 112 101
0.595344 0.189113 0.000272966 0 112 101
0.61078 -0.188566 0.00672071 0 112 101
0.216997 0.272538 0.00940494 0 112 101
0.314748 0.144859 0.00135112 0 112 101
0.630255 -0.102086 0.00516143 0 112 101
0.596693 0.285995 0.00726642 0 112 101
0.549666 -0.0917678 -0.00338357 0 112 101
0.794661 -0.273605 -0.000858749 0 112 101
0.472715 -0.214827 0.00482081 0 112 101
0.574968 0.158396 -0.00409384 0 112 101
0.74614 0.086359 0.00797417 0 112 101
0.5878 -0.00690268 -0.00134005 0 112 101
0.400378 -0.10814 0.00662445 0 112 101
0.507199 -0.201632 0.00748826 0 112 101
0.700024 -0.109757 0.0084292 0 112 101
0.26228 0.128655 0.00862557 0 112 101
0.36125 0.250105 -0.00313599 0 112 101
0.491155 -0.0280123 -0.00555009 0 112 101
0.788414 -0.0279464 -0.00624539 0 112 101
0.219396 -0.149668 0.0091572 0 112 101
0.22596 0.2801 -0.00510512 0 112 101
0.686135 0.0805362 -0.0081795 0 112 101
0.667706 0.170985 -0.00757948 0 112 101
0.300095 -0.239197 0.00851125 0 112 101
0.207441 0.168069 0.00360175 0 112 101
0.321093 -0.0883865 0.00327418 0 112 101
0.431348 0.118123 0.00525819 0 112 101
0.71097 0.203127 -0.00555767 0 112 101
0.602868 0.167499 -0.00400214 0 112 101
0.456009 0.221159 0.00615573 0 112 101
0.79039 -0.00947548 -0.0038678 0 112 101
0.421079 0.269039 0.00492064 0 112 101
0.406332 -0.114182 -0.00428157 0 112 101
0.623106 -0.175288 0.00642824 0 112 101
0.333327 -0.0108329 0.00808622 0 112 101
0.757598 -0.292409 0.00374155 0 112 101
0.310606 0.180397 -0.00391587 0 112 101
0.49149 0.229427 -0.0053675 0 112 101
0.326443 0.212551 0.00340133 0 112 101
0.273466 -0.119699 0.00966256 0 112 101
0.373194 -0.204854 -0.00592177 0 112 101
0.532397 -0.109065 0.00170712 0 112 101
0.788115 -0.293496 -0.00125057 0 112 101
0.589639 0.264571 -0.000849721 0 112 101
0.274748 -0.0749904 -0.00358486 0 112 101
0.243787 -0.0897169 -0.00249603 0 112 101
0.352423 -0.298566 0.00566079 0 112 101
0.268121 0.215003 0.00148251 0 112 101
0.486071 0.269026 -0.00216418 0 112 101
0.549107 -0.0677488 0.00710053 0 112 101
0.563033 -0.00838286 0.00283151 0 112 101
0.462515 -0.203068 0.000140299 0 112 101
0.394945 -0.0315732 0.00242049 0 112 101
0.327105 -0.0386722 -0.00510083 0 112 101
0.257786 0.210874 -0.00164759 0 112 101
0.678271 -0.0202087 0.0063965 0 112 101
0.635822 -0.0234364 0.00790924 0 112 101
0.706661 0.223762 -0.00628564 0 112 101
0.532191 -0.0330994 0.00442783 0 112 101
0.445069 -0.156812 0.00879795 0 112 101
0.205879 0.0129129 -0.00873952 0 112 101
0.374598 -0.065227 0.00721359 0 112 101
0.321751 -0.266607 -0.00570414 0 112 101
0.784062 -0.169625 -0.00307691 0 112 101
0.242457 -0.0243912 0.00962054 0 112 101
0.522368 0.299624 0.00488661 0 112 101
0.583411 0.079179 0.00659896 0 112 101
0.616561 -0.0318396 0.000470876 0 112 101
0.552579 -0.0112693 0.0033069 0 112 101
0.336907 -0.0265823 -0.0018501 0 112 101
0.435408 -0.161181 -0.00513127 0 112 101
0.672098 -0.0299654 -0.00572142 0 112 101
0.465777 0.229318 0.00939381 0 112 101
0.66988 -0.274142 0.00237978 0 112 101
0.235571 0.0287169 0.00945718 0 112 101
0.71254 0.0288341 0.00874416 0 112 101
0.510544 -0.245375 0.00549543 0 112 101
0.62519 -0.239163 0.00305167 0 112 101
0.653671 -0.0381498 -0.00972309 0 112 101
0.329482 -0.00149527 -0.00105237 0 112 101
0.667667 -0.192033 0.00724558 0 112 101
0.493784 -0.202547 0.00975942 0 112 101
0.464043 -0.27856 -0.00279839 0 112 101
0.601736 -0.274504 0.00592595 0 112 101
0.585809 -0.102513 -0.00696342 0 112 101
0.35996 -0.210706 0.00106981 0 112 101
0.674669 -0.296299 0.00478499 0 112 101
0.40417 0.227501 0.00720728 0 112 101
0.746847 -0.21649 0.00650309 0 112 101
0.761878 -0.0178611 0.00411209 0 112 101
0.547044 -0.140032 0.00049208 0 112 101
0.790713 -0.0124545 0.000554969 0 112 101
0.64478 0.0941067 0.00959889 0 112 101
0.256072 -0.22544 -0.00442654 0 112 101
0.375469 -0.0199658 -0.006627 0 112 101
0.277955 0.0380658 0.00898726 0 112 101
0.365457 -0.200208 -0.00892764 0 112 101
0.301038 0.215773 -0.00448607 0 112 101
0.532808 0.245493 0.000210294 0 112 101
0.489352 -0.076895 -0.00245649 0 112 101
0.409173 -0.019026 0.00060439 0 112 101
0.437587 0.16113 -0.00870794 0 112 101
0.509619 -0.224479 0.00796979 0 112 101
0.624265 -0.293844 -0.00327157 0 112 101
0.760158 -0.0920053 0.00713808 0 112 101
0.299645 0.247789 -0.00302949 0 112 101
0.458258 -0.277361 0.00168662 0 112 101
0.305083 0.160865 0.00199214 0 112 101
0.718922 0.148518 0.00761096 0 112 101
0.579585 -0.0484193 -0.00370641 0 112 101
0.450868 -0.0353637 -0.0064486 0 112 101
0.234181 0.236816 -0.00864177 0 112 101
0.288617 0.0411857 -0.00613588 0 112 101
0.373648 0.0914061 -0.00978103 0 112 101
0.688323 0.114526 -0.00532497 0 112 101
0.639391 -0.264891 0.00650257 0 112 101
0.790197 0.0852477 0.00795367 0 112 101
0.271299 0.15145 -0.0024147 0 112 101
0.715102 0.0786723 0.00551338 0 112 101
0.362918 -0.111512 -0.00598265 0 112 101
0.691689 -0.269111 0.00506053 0 112 101
0.710809 0.227857 -0.00938339 0 112 101
0.626597 0.0725921 0.00813443 0 112 101
0.319779 -0.0337712 -0.00966864 0 112 101
0.622157 0.134075 0.00577878 0 112 101
0.521017 0.0721927 0.00725093 0 112 101
0.293538 -0.0935092 -0.0083433 0 112 101
0.262221 0.179445 0.00937845 0 112 101
0.556936 -0.0940871 -0.00484003 0 112 101
0.22565 0.143268 -0.00890605 0 112 101
0.742606 -0.143369 0.00451081 0 112 101
0.629362 -0.21618 0.00149878 0 112 101
0.38391 0.182921 0.00543039 0 112 101
0.50994 -0.224236 0.00904185 0 112 101
0.475792 -0.0363654 -0.00677862 0 112 101
0.546939 -0.285998 0.00702657 0 112 101
0.2664 -0.120557 0.00452957 0 112 101
0.495748 0.0419914 0.000499414 0 112 101
0.316239 -0.144022 0.00492812 0 112 101
0.539021 0.153222 -0.00901222 0 112 101
0.731255 0.0164311 0.0073077 0 112 101
0.374989 0.261008 0.0051521 0 112 101
0.257609 0.11446 0.0093452 0 112 101
0.564707 0.0586916 0.00665249 0 112 101
0.230649 0.0180719 0.00580062 0 112 101
0.390874 -0.163954 -0.00381301 0 112 101
0.45176 0.2952 0.00844852 0 112 101
0.220778 0.0314271 -0.00378588 0 112 101
0.673501 0.0443647 -0.00645189 0 112 101
0.472933 -0.250777 -0.00377533 0 112 101
0.23346 -0.152776 0.00650071 0 112 101
0.592926 0.131427 -0.00646512 0 112 101
0.772781 -0.280453 0.00320928 0 112 101
0.625487 -0.203 0.00792383 0 112 101
0.601044 -0.0512105 0.00477732 0 112 101
0.231306 0.270177 0.00398196 0 112 101
0.327703 0.218418 0.0033555 0 112 101
0.411586 0.0923398 -0.00297591 0 112 101
0.715459 -0.292481 -0.00349341 0 112 101
0.358345 -0.00429702 -0.00366274 0 112 101
0.448731 0.115818 -0.00380239 0 112 101
0.241246 -0.242439 -0.00430565 0 112 101
0.612751 0.0909968 -0.00279522 0 112 101
0.518364 0.13176 -0.00629076 0 112 101
0.617337 -0.275186 0.00649419 0 112 101
0.477903 -0.0133082 -0.00423307 0 112 101
0.322278 -0.0824763 0.00689612 0 112 101
0.229388 0.0693881 0.00122694 0 112 101
0.509606 0.0740574 0.00628068 0 112 101
0.583426 -0.0339793 -0.00898219 0 112 101
0.456478 0.251305 -0.0042749 0 112 101
0.233256 -0.202153 -0.00109106 0 112 101
0.27934 -0.136246 0.00997368 0 112 101
0.298045 0.0272567 0.00718189 0 112 101
0.790864 0.000812137 -0.00602599 0 112 101
0.566287 0.218282 0.00287155 0 112 101
0.784412 -0.102908 -0.00454886 0 112 101
0.622816 0.0540457 -0.00201963 0 112 101
0.521818 -0.180203 -0.00380972 0 112 101
0.74715 -0.209355 -0.00198831 0 112 101
0.306701 0.191503 0.00785586 0 112 101
0.202156 0.175762 -0.00612275 0 112 101
0.344325 -0.0571463 -0.00918334 0 112 101
0.669422 0.23505 0.000938276 0 112 101
0.719359 -0.145348 0.00803243 0 112 101
0.257826 -0.225686 -0.00572189 0 112 101
0.790052 0.294758 0.00906309 0 112 101
0.642033 -0.0188418 -0.00897343 0 112 101
0.62233 0.171106 -0.00103094 0 112 101
0.432232 -0.0330292 0.00934189 0 112 101
0.38854 -0.0907792 -0.00745758 0 112 101
0.749872 -0.148946 0.00938278 0 112 101
0.601924 0.0521125 0.00852016 0 112 101
0.320791 -0.110366 -0.000376103 0 112 101
0.480633 -0.187343 -0.000790585 0 112 101
0.255634 0.177878 -0.00420112 0 112 101
0.621137 0.241253 -0.00771411 0 112 101
0.246682 -0.28028 0.00268512 0 112 101
0.502474 0.122707 -0.00749789 0 112 101
0.457904 0.291551 9.2026e-05 0 112 101
0.268421 -0.226203 0.00567118 0 112 101
0.768473 0.0546493 0.00669671 0 112 101
0.219264 0.251986 -0.00841137 0 112 101
0.721444 -0.0102589 -0.00615448 0 112 101
0.689669 -0.0913213 -0.00615576 0 112 101
0.689037 0.0540273 0.000142353 0 112 101
0.414008 -0.277558 -0.000794301 0 112 101
0.737499 0.107868 0.00601672 0 112 101
0.412231 0.105294 0.00117102 0 112 101
0.720855 -0.166541 -0.000547742 0 112 101
0.281587 0.110336 0.00276867 0 112 101
0.457383 -0.243375 -0.00991273 0 112 101
0.634336 -0.0110778 0.00498799 0 112 101
0.229705 0.0302944 0.000261151 0 112 101
0.539077 0.0175528 -0.00594016 0 112 101
0.471767 0.151983 0.00902187 0 112 101
0.685179 0.0972784 0.00330555 0 112 101
0.738792 0.0525246 0.00998314 0 112 101
0.672554 -0.000852088 -0.00920828 0 112 101
0.644062 0.123982 -0.000305685 0 112 101
0.673252 -0.164638 0.00334075 0 112 101
0.70934 0.0697466 -0.00702186 0 112 101
0.776338 0.295036 -0.00887148 0 112 101
0.309803 0.081024 0.00996157 0 112 101
0.656336 0.138797 0.00200039 0 112 101
0.566649 0.0704468 -0.00462777 0 112 101
0.459892 0.242216 0.0086092 0 112 101
0.384567 -0.165583 0.0093571 0 112 101
0.359635 0.285823 0.000599074 0 112 101
0.623071 0.0518142 0.00193126 0 112 101
0.423275 0.160076 0.00596085 0 112 101
0.247515 0.25058 0.00789599 0 112 101
0.286213 0.111202 -0.00418369 0 112 101
0.227772 0.134555 -0.00444299 0 112 101
0.216782 0.110456 -0.00716312 0 112 101
0.757011 0.036466 0.00902637 0 112 101
0.585276 0.206874 -0.00582954 0 112 101
0.72547 -0.00179875 0.00653355 0 112 101
0.384464 -0.191893 -0.00137266 0 112 101
0.660146 -0.0417027 0.00721784 0 112 101
0.318156 0.290454 0.00877101 0 112 101
0.785706 0.150573 0.00562043 0 112 101
0.717579 -0.147715 -0.00202947 0 112 101
0.49091 0.116332 0.000195592 0 112 101
0.781761 -0.190955 0.00848402 0 112 101
0.59529 0.138405 -0.00547922 0 112 101
0.273726 -0.218604 0.003689 0 112 101
0.219518 0.227484 -0.00590314 0 112 101
0.720882 -0.181484 -0.00382823 0 112 101
0.475299 0.258919 -0.00204452 0 112 101
0.740227 0.252883 -0.00713721 0 112 101
0.756567 0.242683 -0.00807916 0 112 101
0.204991 0.152001 -0.00940147 0 112 101
0.208845 -0.22563 0.00872329 0 112 101
0.591585 -0.0919337 0.00714586 0 112 101
0.792024 -0.00337419 0.00489789 0 112 101
0.361533 0.233894 -0.0055803 0 112 101
0.777395 0.226716 -0.00264078 0 112 101
0.797576 0.162644 0.00130906 0 112 101
0.651969 0.140609 -0.0039384 0 112 101
0.474907 0.232034 0.00171134 0 112 101
0.607046 -0.146639 -0.000483805 0 112 101
0.434935 0.241503 0.00819044 0 112 101
0.271439 0.230004 0.0085124 0 112 101
0.331785 -0.0629735 -0.00554531 0 112 101
0.57972 0.262041 0.00187697 0 112 101
0.681558 -0.248101 -0.00658956 0 112 101
0.285941 0.0341868 0.000274619 0 112 101
0.44678 0.15424 -0.000257657 0 112 101
0.656055 -0.210883 0.00884772 0 112 101
0.619514 0.221959 0.00151469 0 112 101
0.614279 0.088416 0.00659438 0 112 101
0.410142 0.235772 0.00887788 0 112 101
0.489694 0.272659 0.00839044 0 112 101
0.573164 0.290409 -0.00519767 0 112 101
0.473401 -0.104036 -0.00357968 0 112 101
0.711873 -0.116143 -0.00263473 0 112 101
0.752538 -0.178482 -0.00498533 0 112 101
0.598137 -0.156418 -0.00273482 0 112 101
0.661964 0.141566 0.00841798 0 112 101
0.22221 0.0764278 0.00993852 0 112 101
0.411097 0.287096 0.00656884 0 112 101
0.575136 0.251121 -0.00840909 0 112 101
0.205431 -0.0208882 -6.36376e-05 0 112 101
0.246578 0.247675 -0.00545677 0 112 101
0.210676 0.156867 -0.00288267 0 112 101
0.727035 -0.242056 0.0043957 0 112 101
0.234548 0.259114 -0.00555717 0 112 101
0.228355 0.122384 -0.00407381 0 112 101
0.35529 -0.148587 -0.00991678 0 112 101
0.736305 0.0773674 -0.00889824 0 112 101
0.445895 -0.228818 -0.0088791 0 112 101
0.767698 0.211616 -0.00394985 0 112 101
0.585504 0.0650257 0.00273679 0 112 101
0.369154 -0.136249 0.00114886 0 112 101
0.346825 -0.176753 0.00178756 0 112 101
0.758065 0.226506 -0.00787022 0 112 101
0.607986 -0.251686 -0.00968328 0 112 101
0.238006 -0.234358 -0.00163925 0 112 101
0.352144 -0.166411 0.00382102 0 112 101
0.236057 -0.207581 -0.0040025 0 112 101
0.736106 0.223638 -0.00622429 0 112 101
0.441503 0.017934 -0.000890409 0 112 101
0.649398 -0.00882025 0.00553352 0 112 101
0.408719 -0.0819014 0.00850998 0 112 101
0.542767 -0.0439237 -0.00473038 0 112 101
0.66228 -0.117261 0.00826591 0 112 101
0.675283 0.0958039 -0.00170232 0 112 101
0.68087 -0.0181242 0.00161062 0 112 101
0.229624 0.143951 0.00506257 0 112 101
0.302165 0.155008 0.0023306 0 112 101
0.209336 -0.0671083 0.00303632 0 112 101
0.273885 -0.094707 -8.81096e-05 0 112 101
0.657289 -0.0901035 0.000161716 0 112 101
0.430157 -0.266406 -0.00131112 0 112 101
0.371579 -0.0942352 -0.00528363 0 112 101
0.317539 -0.0876947 -0.00632135 0 112 101
0.373078 0.117886 0.00898201 0 112 101
0.683686 0.0652201 -0.00315202 0 112 101
0.723059 0.0214753 -0.00375645 0 112 101
0.798906 -0.29606 0.00987385 0 112 101
0.552164 0.0546783 0.00188348 0 112 101
0.7581 -0.155344 -0.00378512 0 112 101
0.707865 -0.0717338 0.00337196 0 112 101
0.598141 -0.26846 -0.00290536 0 112 101
0.33319 0.124687 -0.00616672 0 112 101
0.289728 -0.111385 0.00529429 0 112 101
0.264979 0.177412 0.00212712 0 112 101
0.721294 0.223613 -0.00228047 0 112 101
0.657554 -0.0164354 0.00931126 0 112 101
0.343093 0.177174 -0.00802439 0 112 101
0.47427 0.160741 0.00559161 0 112 101
0.626828 -0.205912 0.00776888 0 112 101
0.40981 -0.136236 0.00501687 0 112 101
0.254501 -0.247882 -0.0015014 0 112 101
0.285632 0.0731863 0.00851082 0 112 101
0.695232 -0.254966 -0.00116437 0 112 101
0.399777 0.160928 -0.000315111 0 112 101
0.784347 -0.167137 -0.00606782 0 112 101
0.268069 0.00522417 -0.00118064 0 112 101
0.608601 -0.271354 0.000728121 0 112 101
0.396587 0.250214 0.00522317 0 112 101
0.459881 -0.217458 -0.00847592 0 112 101
0.365957 -0.281915 -0.00490514 0 112 101
0.606203 0.120192 -0.00416432 0 112 101
0.753582 -0.0877977 0.00296907 0 112 101
0.728618 -0.0968347 0.00531648 0 112 101
0.648364 0.055036 0.00222242 0 112 101
0.414834 -0.0603609 0.00281676 0 112 101
0.534798 0.219662 -0.00836713 0 112 101
0.545714 0.156535 0.00445226 0 112 101
0.389135 -0.0592084 0.00135636 0 112 101
0.503809 -0.265258 -0.00692183 0 112 101
0.460665 -0.0102696 -0.00712343 0 112 101
0.709939 0.0992688 0.0060473 0 112 101
0.476186 0.235049 0.0040258 0 112 101
0.26454 -0.13726 0.00796418 0 112 101
0.702215 -0.204271 0.00192891 0 112 101
0.459172 0.192826 -0.00559668 0 112 101
0.328381 0.0370559 -0.00747591 0 112 101
0.245316 -0.00810109 -0.00845802 0 112 101
0.40086 -0.0959511 -0.00160385 0 112 101
0.599134 -0.205263 0.00199987 0 112 101
0.729694 0.146393 -0.00354719 0 112 101
0.633936 0.26778 -0.00191247 0 112 101
0.521257 0.299596 0.00318428 0 112 101
0.26413 -0.231418 0.00568429 0 112 101
0.570988 -0.21249 -0.00319184 0 112 101
0.562661 0.0872791 -0.00453441 0 112 101
0.379743 -0.167434 0.00810551 0 112 101
0.470235 0.298628 -0.0025645 0 112 101
0.466687 0.116724 0.00932567 0 112 101
0.288016 0.278912 -0.00143269 0 112 101
0.632338 0.0255272 0.00417096 0 112 101
0.561635 -0.0422311 -0.00378204 0 112 101
0.391721 -0.269193 -0.000249996 0 112 101
0.241983 -0.160091 -0.00732369 0 112 101
0.222188 -0.17247 0.00502518 0 112 101
0.456693 -0.209669 -0.00709585 0 112 101
0.36047 -0.034705 -0.00896815 0 112 101
0.392395 -0.163178 0.00992956 0 112 101
0.777076 -0.0960743 0.000560706 0 112 101
0.350432 0.131294 0.00896372 0 112 101
0.468855 -0.298805 -0.00979333 0 112 101
0.636274 -0.287966 -0.00467764 0 112 101
0.798973 0.172501 -0.00786283 0 112 101
0.798344 0.0447078 0.00716653 0 112 101
0.212978 -0.0433217 0.00250403 0 112 101
0.669112 0.240073 -0.00414666 0 112 101
0.75961 0.0863382 -0.00711812 0 112 101
0.710152 -0.112012 -0.00102111 0 112 101
0.578447 -0.00313104 -0.00678105 0 112 101
0.604568 0.0623914 0.00922235 0 112 101
0.496078 -0.214458 -0.0061659 0 112 101
0.565987 0.169485 0.00875048 0 112 101
0.736161 0.0431471 -0.000307617 0 112 101
0.527145 -0.10079 -0.000174056 0 112 101
0.33287 -0.157932 0.00694155 0 112 101
0.38821 -0.0168943 -0.00520341 0 112 101
0.591793 -0.124723 -0.00351737 0 112 101
0.552522 -0.0223027 0.00116307 0 112 101
0.357323 -0.239297 0.00858451 0 112 101
0.471378 0.276704 0.00882191 0 112 101
0.735057 -0.0899247 0.00083945 0 112 101
0.476933 -0.23132 -0.00775953 0 112 101
0.261806 0.163325 -0.00810201 0 112 101
0.26251 -0.21313 0.00236479 0 112 101
0.222491 -0.047862 -0.00178415 0 112 101
0.525881 0.097496 0.00905346 0 112 101
0.776197 -0.279228 -0.000404315 0 112 101
0.774839 0.0713747 -0.00478192 0 112 101
0.610824 -0.0283837 0.00772587 0 112 101
0.589869 -0.275058 0.00821507 0 112 101
0.754739 -0.18346 0.000128497 0 112 101
0.648142 -0.245535 -0.00705593 0 112 101
0.262922 -0.254692 0.00603127 0 112 101
0.249787 -0.138024 0.00989757 0 112 101
0.209379 0.212537 0.000508351 0 112 101
0.616087 -0.230032 0.00829502 0 112 101
0.78956 -0.173968 -0.00895102 0 112 101
0.209323 -0.0995887 -0.00862857 0 112 101
0.559244 -0.0184481 -0.00241132 0 112 101
0.706038 -0.114962 0.0045789 0 112 101
0.290806 -0.165913 -0.00922696 0 112 101
0.311776 0.275804 0.00115679 0 112 101
0.55795 -0.133159 0.00964682 0 112 101
0.568408 -0.17496 0.00394728 0 112 101
0.217659 -0.074741 -0.00870802 0 112 101
0.307631 0.210227 0.00557682 0 112 101
0.564388 0.0639203 0.00124439 0 112 101
0.472439 -0.23441 -0.00438093 0 112 101
0.674912 -0.2214 -0.00816682 0 112 101
0.611154 0.192311 0.00646675 0 112 101
0.461875 -0.22557 0.00307306 0 112 101
0.32329 0.0298112 0.00207763 0 112 101
0.475145 0.28617 -0.00327234 0 112 101
0.247545 -0.181915 -0.0087372 0 112 101
0.206798 -0.298046 -0.00141174 0 112 101
0.774777 0.113863 -0.00851192 0 112 101
0.426435 -0.114472 -0.00940154 0 112 101
0.504257 -0.270076 0.00942043 0 112 101
0.688046 -0.280681 0.000549013 0 112 101
0.7723 0.258988 0.00594705 0 112 101
0.32263 -0.00541382 0.000359295 0 112 101
0.336359 0.0586628 -0.00513367 0 112 101
0.491953 0.157789 -0.000326726 0 112 101
0.236234 0.142181 0.00397602 0 112 101
0.567733 0.250071 0.000516331 0 112 101
0.768639 0.262776 -0.00542662 0 112 101
0.552328 0.26278 -0.00163694 0 112 101
0.598316 0.0109032 0.00193483 0 112 101
0.330701 0.234716 -0.00582305 0 112 101
0.489239 -0.140535 0.00240687 0 112 101
0.562839 -0.284781 0.00322461 0 112 101
0.69998 -0.0632268 -0.00940481 0 112 101
0.319255 0.032097 -0.00158799 0 112 101
0.355061 0.0480304 -0.00428944 0 112 101
0.782472 0.0277293 0.00249217 0 112 101
0.222795 0.290704 0.000952343 0 112 101
0.559199 -0.0851613 -0.00330302 0 112 101
0.537161 0.254339 0.00788623 0 112 101
0.760657 0.239759 -0.00165079 0 112 101
0.764714 0.186102 0.00526867 0 112 101
0.757171 -0.189091 -0.00874417 0 112 101
0.750258 -0.0172109 0.0017227 0 112 101
0.305064 0.0453 -0.00491165 0 112 101
0.268388 -0.285356 -0.00288583 0 112 101
0.31148 -0.233997 0.00264406 0 112 101
0.435995 -0.286817 0.00465165 0 112 101
0.68617 -0.00983463 0.00693947 0 112 101
0.293869 0.287026 0.00859277 0 112 101
0.641625 0.00424411 0.00206259 0 112 101
0.722938 0.255867 -0.00916508 0 112 101
0.704698 -0.0169599 0.00424206 0 112 101
0.262696 -0.289761 -0.00550354 0 112 101
0.560489 -0.0135399 -0.00420422 0 112 101
0.285132 -0.123818 0.00946637 0 112 101
0.334112 -0.218662 0.0085078 0 112 101
0.689307 -0.274153 -0.00900364 0 112 101
0.625202 -0.179968 -0.00012935 0 112 101
0.380415 0.270106 -0.00363543 0 112 101
0.695926 0.241932 0.000397078 0 112 101
0.383558 0.156022 0.000919222 0 112 101
0.282108 -0.0525368 0.000341456 0 112 101
0.220428 0.0898292 -0.00323971 0 112 101
0.555842 0.115633 0.00355877 0 112 101
0.474124 -0.0819876 -0.00223896 0 112 101
0.511333 0.114566 0.00953487 0 112 101
0.295118 -0.0996518 -0.000557114 0 112 101
0.243778 0.150179 -0.00769184 0 112 101
0.439466 0.0796803 -0.00794375 0 112 101
0.269077 0.107782 0.00635537 0 112 101
0.490232 -0.267485 -0.00338541 0 112 101
0.798834 -0.278608 0.0062867 0 112 101
0.517364 0.205569 -0.0019466 0 112 101
0.282811 -0.205033 0.00246312 0 112 101
0.777106 -0.142779 0.00153909 0 112 101
0.64541 -0.0726629 0.00687738 0 112 101
0.214295 0.269467 0.00333896 0 112 101
0.748908 0.219975 0.00902013 0 112 101
0.218547 -0.0777275 0.00424581 0 112 101
0.580409 -0.187829 -0.00123365 0 112 101
0.232326 0.0140363 -0.000636881 0 112 101
0.396883 0.189762 -0.0050826 0 112 101
0.545086 0.185528 0.00384736 0 112 101
0.450037 0.0164352 -0.00720792 0 112 101
0.531324 -0.18102 0.00732753 0 112 101
0.208432 -0.127923 0.000833721 0 112 101
0.648008 -0.161098 0.00153036 0 112 101
0.245859 -0.00961056 0.00523531 0 112 101
0.259348 0.0475925 0.00640352 0 112 101
0.277542 0.0582617 -0.00746085 0 112 101
0.358906 -0.191999 0.00382184 0 112 101
0.779038 0.137912 -0.0091456 0 112 101
0.674966 0.125235 0.00982735 0 112 101
0.781732 0.112189 -0.00201501 0 112 101
0.346774 -0.109889 0.00447663 0 112 101
0.401431 0.0860683 -0.00368383 0 112 101
0.631359 0.171404 -0.00907981 0 112 101
0.51045 0.06776 0.0036247 0 112 101
0.230826 -0.0981873 0.00646626 0 112 101
0.518886 0.0931027 -0.00927323 0 112 101
0.722097 -0.253895 0.00413649 0 112 101
0.692581 -0.27157 0.0020502 0 112 101
0.503487 0.287252 -0.00204218 0 112 101
0.452128 0.198024 0.00357948 0 112 101
0.305099 -0.230618 0.00469719 0 112 101
0.615801 -0.205133 0.000966108 0 112 101
0.746675 0.103727 0.00127552 0 112 101
0.757315 -0.294992 0.0060727 0 112 101
0.696784 0.0920556 -0.000827077 0 112 101
0.659056 0.0868713 -0.00574549 0 112 101
0.799192 0.0423559 -0.00671369 0 112 101
0.220558 -0.261132 -0.00474085 0 112 101
0.490464 -0.13662 0.00812557 0 112 101
0.54237 -0.053372 -0.00630078 0 112 101
0.546771 -0.143307 -0.0033264 0 112 101
0.328568 -0.0753363 -0.000641519 0 112 101
0.433351 -0.0652659 0.000899361 0 112 101
0.572588 0.292547 0.000313365 0 112 101
0.712957 0.146176 -0.00185794 0 112 101
0.762747 0.233769 0.00945674 0 112 101
0.554127 0.0919209 -0.0054347 0 112 101
0.428991 0.259409 -0.00987644 0 112 101
0.676804 0.0830591 -0.00592819 0 112 101
0.590674 -0.158225 0.00465782 0 112 101
0.706838 0.205142 0.00296799 0 112 101
0.275337 -0.240801 -0.003894 0 112 101
0.511115 -0.057 -0.00738694 0 112 101
0.349005 0.0261946 -0.00262803 0 112 101
0.210977 -0.251651 -0.00533162 0 112 101
0.619009 0.240083 -0.00468339 0 112 101
0.754182 0.184257 0.00662745 0 112 101
0.202513 -0.218374 0.00236779 0 112 101
0.286917 0.299083 -0.00512664 0 112 101
0.754389 -0.100831 0.00479334 0 112 101
0.590039 0.0278377 0.00147435 0 112 101
0.246152 -0.107423 0.00595498 0 112 101
0.69448 -0.0526879 -0.00769552 0 112 101
0.224101 -0.247842 -0.00192044 0 112 101
0.250582 0.115239 0.00747582 0 112 101
0.562852 -0.159956 0.0085667 0 112 101
0.231052 -0.0215658 0.00549066 0 112 101
0.6834 -0.233411 0.00141033 0 112 101
0.574809 -0.241451 0.00645663 0 112 101
0.335332 0.00680388 -0.00434158 0 112 101
0.705557 0.00558951 -0.00347046 0 112 101
0.742088 -0.266174 -0.00440051 0 112 101
0.659271 -0.286845 0.00836255 0 112 101
0.459094 -0.230203 0.00522358 0 112 101
0.318488 0.1447 0.00269968 0 112 101
0.411715 -0.0578885 -0.00929003 0 112 101
0.737151 0.109082 0.00134535 0 112 101
0.639307 0.229568 0.00675435 0 112 101
0.35408 0.298971 0.00225258 0 112 101
0.56958 0.260396 -0.00283576 0 112 101
0.78536 -0.269087 0.00422147 0 112 101
0.797669 -0.25082 0.00705597 0 112 101
0.756598 0.255136 0.0081855 0 112 101
0.451019 0.194083 -0.00211613 0 112 101
0.565841 0.268317 0.00379028 0 112 101
0.790208 0.0197375 -0.00564091 0 112 101
0.229346 0.235302 -0.00161033 0 112 101
0.556277 -0.282433 -0.00805528 0 112 101
0.304757 0.0152297 -0.00989614 0 112 101
0.308839 -0.22474 0.00153928 0 112 101
0.410419 0.0586342 -0.00721823 0 112 101
0.573882 0.0544315 -0.00672291 0 112 101
0.222703 -0.23768 -0.00933299 0 112 101
0.343518 0.0123472 0.00678465 0 112 101
0.338598 -0.213693 0.00304495 0 112 101
0.661539 -0.0384217 0.00446509 0 112 101
0.258378 -0.265175 0.00344482 0 112 101
0.338372 0.0741151 -0.00842305 0 112 101
0.347482 -0.000331975 0.000960111 0 112 101
0.750071 -0.159362 -0.00710278 0 112 101
0.51988 -0.249712 -0.00497914 0 112 101
0.654814 0.23811 -0.00297705 0 112 101
0.494886 -0.152912 0.000911648 0 112 101
0.355416 0.00267668 -0.00192117 0 112 101
0.515445 -0.286329 -0.00942863 0 112 101
0.350362 -0.203162 -0.00438323 0 112 101
0.48445 0.156497 0.00692826 0 112 101
0.530742 -0.134748 -0.00842394 0 112 101
0.781558 0.0520737 0.00177942 0 112 101
0.556836 0.138907 -0.0038638 0 112 101
0.453486 -0.274318 0.00257857 0 112 101
0.393235 -0.233532 0.000320049 0 112 101
0.452735 -0.237225 0.00127614 0 112 101
0.330526 -0.117115 -0.00234934 0 112 101
0.686239 0.0970486 -0.00994046 0 112 101
0.422577 -0.054997 0.00216481 0 112 101
0.522118 0.0366658 0.00272426 0 112 101
0.307468 -0.215651 -0.00328603 0 112 101
0.615402 0.18531 -0.00895652 0 112 101
0.699149 0.150727 0.00580826 0 112 101
0.49385 0.0182938 -0.00245778 0 112 101
0.670899 0.138402 -0.00157486 0 112 101
0.594633 -0.293838 0.00503942 0 112 101
0.315768 0.114469 0.00816296 0 112 101
0.595627 0.231332 -0.007856 0 112 101
0.463368 -0.263558 -0.00840567 0 112 101
0.760725 0.0793687 0.000943017 0 112 101
0.743631 0.123426 0.00609407 0 112 101
0.294011 -0.267368 -0.00487121 0 112 101
0.794796 0.277433 0.00448645 0 112 101
0.259145 -0.215719 0.00901279 0 112 101
0.234315 -0.149125 -0.00735275 0 112 101
0.747177 0.0392976 0.00836064 0 112 101
0.265215 0.056672 -0.00382748 0 112 101
0.263847 0.0842681 0.00768013 0 112 101
0.549327 0.198241 0.00725038 0 112 101
0.615529 0.149354 0.00436055 0 112 101
0.432624 0.00648682 0.00740372 0 112 101
0.592359 -0.219038 0.0050959 0 112 101
0.740502 0.265112 0.00273491 0 112 101
0.774289 -0.295074 0.00111911 0 112 101
0.214856 -0.12898 -0.00977665 0 112 101
0.665255 0.0276521 -0.00229505 0 112 101
0.271433 -0.121574 0.00654655 0 112 101
0.340259 0.298388 0.00632606 0 112 101
0.339062 0.187209 0.00569228 0 112 101
0.779836 0.0757029 -0.00308134 0 112 101
0.7336 0.191533 -0.00138542 0 112 101
0.409148 -0.207643 0.00508566 0 112 101
0.476143 0.0578298 0.00383701 0 112 101
0.229136 0.177889 -0.00679609 0 112 101
0.556068 -0.0133702 -0.00220308 0 112 101
0.586283 0.237869 -0.00759931 0 112 101
0.304382 -0.249786 0.00725511 0 112 101
0.461324 -0.182352 -0.00515869 0 112 101
0.452099 0.0946839 -0.00114117 0 112 101
0.670722 -0.0440756 -0.00247867 0 112 101
0.388022 -0.221477 0.00433067 0 112 101
0.750548 0.161392 0.00891925 0 112 101
0.237742 -0.203553 0.00610753 0 112 101
0.244079 -0.0527354 -0.00138955 0 112 101
0.462096 0.0735307 0.0044414 0 112 101
0.284756 0.136684 0.00401784 0 112 101
0.563569 -0.00900318 0.00217254 0 112 101
0.32525 -0.207694 0.00425277 0 112 101
0.496916 0.0996791 -0.00652847 0 112 101
0.34254 -0.12928 -0.00262829 0 112 101
0.78978 -0.207681 -0.00685217 0 112 101
0.370379 0.130995 0.00951404 0 112 101
0.324028 -0.291177 0.00681634 0 112 101
0.394088 0.249824 0.00482373 0 112 101
0.381005 -0.278357 -0.00399131 0 112 101
0.766538 0.0684211 0.0077567 0 112 101
0.372874 -0.0666548 0.00301823 0 112 101
0.570515 0.151499 -0.00581422 0 112 101
0.299591 0.0793998 -0.00478602 0 112 101
0.462097 -0.210989 0.00399909 0 112 101
0.307239 0.214432 -0.00143849 0 112 101
0.597304 -0.170152 -0.00578454 0 112 101
0.661454 0.0567259 -0.00618074 0 112 101
0.374388 0.136338 -0.00595699 0 112 101
0.300275 -0.262242 -0.00617345 0 112 101
0.339184 0.0412085 0.00883501 0 112 101
0.232431 -0.0799057 0.00294644 0 112 101
0.611238 0.257591 -0.00103652 0 112 101
0.666508 -0.158963 0.00196321 0 112 101
0.791459 -0.0475985 0.0043243 0 112 101
0.468607 -0.151508 -0.00488624 0 112 101
0.515131 -0.276151 -0.00586796 0 112 101
0.781776 0.033691 0.00387079 0 112 101
0.320617 -0.0919662 -0.00415981 0 112 101
0.435865 0.298739 -0.00574226 0 112 101
0.354163 -0.147276 0.00124524 0 112 101
0.429421 -0.0602358 0.000288179 0 112 101
0.707604 -0.062492 0.00132956 0 112 101
0.412135 -0.0234548 -0.00219233 0 112 101
0.666556 -0.159068 -0.0098145 0 112 101
0.241084 0.1311 -0.000721225 0 112 101
0.349988 0.111029 -0.00119064 0 112 101
0.481081 -0.147047 -0.00977501 0 112 101
0.647967 -0.294062 0.00712007 0 112 101
0.285454 0.0220559 -0.00959466 0 112 101
0.739192 0.100047 -0.00481701 0 112 101
0.474676 0.174259 0.00542546 0 112 101
0.227946 0.165698 -0.00494131 0 112 101
0.47917 0.0578643 -0.0046472 0 112 101
0.353177 0.225222 -0.00399581 0 112 101
0.363506 0.0889578 0.00880764 0 112 101
0.618173 -0.164455 -0.00197426 0 112 101
0.760431 -0.201655 0.00585459 0 112 101
0.659173 -0.251005 -0.00567675 0 112 101
0.337479 0.0834543 0.00726307 0 112 101
0.301331 -0.0497763 0.000279127 0 112 101
0.474406 0.0981675 0.00536367 0 112 101
0.529542 -0.00433118 0.00105935 0 112 101
0.365187 -0.146773 -0.000216862 0 112 101
0.649158 0.0646087 -0.000856091 0 112 101
0.255089 0.152891 0.00100138 0 112 101
0.289731 -0.22805 0.000296197 0 112 101
0.796495 0.0194424 -0.00252482 0 112 101
0.406478 0.182805 0.00617715 0 112 101
0.535382 -0.169638 -0.00466668 0 112 101
0.325695 -0.0735307 0.00150107 0 112 101
0.271229 -0.0220284 0.00555145 0 112 101
0.731681 0.253796 -0.00849308 0 112 101
0.644422 0.0422002 0.00252722 0 112 101
0.541631 0.0532778 -0.00695656 0 112 101
0.68592 -0.101843 0.00567973 0 112 101
0.59139 0.202564 0.00401996 0 112 101
0.609925 0.264201 -0.00967775 0 112 101
0.267787 0.175587 -0.00371094 0 112 101
0.259871 -0.0248543 0.00378132 0 112 101
0.448626 0.168042 -0.000263552 0 112 101
0.26861 0.0497925 0.006172 0 112 101
0.728174 0.255122 -0.00314816 0 112 101
0.550049 -0.105449 0.00617166 0 112 101
0.575153 0.26262 -0.00773948 0 112 101
0.799065 -0.154502 -0.00186359 0 112 101
0.220716 0.0789242 0.00337322 0 112 101
0.47017 -0.144383 -0.00628933 0 112 101
0.500797 0.128003 -0.00516 0 112 101
0.258897 0.0960575 -0.00365206 0 112 101
0.244211 0.253082 0.00970739 0 112 101
0.278178 -0.188903 0.00737655 0 112 101
0.613106 -0.0636477 0.00544123 0 112 101
0.786163 -0.199264 0.00664053 0 112 101
0.57827 0.0454805 -0.00806712 0 112 101
0.322412 -0.268341 0.0048763 0 112 101
0.4088 0.18705 0.00148624 0 112 101
0.756523 0.259458 -0.0097593 0 112 101
0.438409 -0.182418 0.00454061 0 112 101
0.250002 0.230945 0.00917974 0 112 101
0.347543 -0.0990714 -0.00582578 0 112 101
0.501738 -0.214968 -0.00691746 0 112 101
0.475028 0.191845 0.00681571 0 112 101
0.517481 -0.109704 0.00425297 0 112 101
0.561413 0.0102742 -0.00931108 0 112 101
0.228015 -0.0991072 0.00269408 0 112 101
0.342217 0.0148363 0.00400889 0 112 101
0.696763 0.291399 -0.000779835 0 112 101
0.725907 0.186692 -0.00200196 0 112 101
0.421515 0.0394039 0.00826155 0 112 101
0.65509 -0.24909 -0.00291239 0 112 101
0.720675 -0.0949039 0.0013205 0 112 101
0.487171 0.22248 0.00675957 0 112 101
0.722957 0.212133 -0.00423161 0 112 101
0.353845 -0.128209 -0.00716052 0 112 101
0.684502 0.217191 -0.00786758 0 112 101
0.616604 0.171802 -0.000954965 0 112 101
0.430344 -0.214617 0.00605358 0 112 101
0.285368 -0.0701023 0.000183455 0 112 101
0.279863 0.228508 0.00773258 0 112 101
0.610441 0.145468 -0.00557972 0 112 101
0.383181 0.0664325 0.00711736 0 112 101
0.508366 -0.298376 -0.00795308 0 112 101
0.572926 -0.27742 0.000397316 0 112 101
0.559344 0.127285 -0.00799065 0 112 101
0.792761 0.275782 0.00250129 0 112 101
0.573004 -0.0496342 0.00416323 0 112 101
0.43976 -0.0669695 0.00887624 0 112 101
0.227099 -0.277289 -0.000304195 0 112 101
0.367112 -0.125042 -0.00869718 0 112 101
0.762188 -0.0690334 -0.00707534 0 112 101
0.280327 -0.0245718 -0.00843948 0 112 101
0.309065 -0.227976 0.00187954 0 112 101
0.469195 -0.291317 -0.00518701 0 112 101
0.71506 0.231161 -0.00923717 0 112 101
0.741173 0.12995 -0.00673441 0 112 101
0.74102 -0.0760458 -0.00663529 0 112 101
0.475318 0.113243 -0.0055169 0 112 101
0.3881 0.138042 -0.00666346 0 112 101
0.224898 0.142017 0.00329245 0 112 101
0.791606 -0.114676 -0.00758579 0 112 101
0.366853 0.171653 0.0079202 0 112 101
0.644197 0.181544 0.00547833 0 112 101
0.750244 0.24394 0.000184037 0 112 101
0.601635 -0.115711 0.00812132 0 112 101
0.416472 0.255494 0.00409578 0 112 101
0.769655 -0.256176 0.000803213 0 112 101
0.745041 0.278144 -0.00851774 0 112 101
0.525287 -0.199791 0.00996351 0 112 101
0.235731 0.258895 0.00442455 0 112 101
0.666485 0.214809 0.00693857 0 112 101
0.436373 0.188404 -0.00568708 0 112 101
0.202175 -0.0517992 -0.00478083 0 112 101
0.422773 0.155049 0.0030116 0 112 101
0.392595 -0.124561 0.00519543 0 112 101
0.758438 0.107194 0.0065746 0 112 101
0.372321 0.121385 -0.00218075 0 112 101
0.325108 0.202487 0.00968642 0 112 101
