ply
format ascii 1.0
comment Created by Open3D
element vertex 1240
property double x
property double y
property double z
property uchar red
property uchar green
property uchar blue
end_header
0.522268 0.157669 0.00242823 0 89 68
0.532094 0.138475 0.000656035 0 91 76
0.533815 0.131665 0.00091591 0 94 78
0.541104 0.114378 0.000105377 0 88 74
0.54677 0.0977689 -6.66154e-07 0 80 70
0.55141 0.0825393 0.000182182 0 54 46
0.498494 -0.0189366 0.0435853 68 36 103
0.515993 -0.067933 0.0428786 0 69 135
0.586404 -0.0289504 0.00100154 19 108 109
0.593972 -0.0481123 0.00036052 41 131 120
0.557085 -0.1036 0.0280956 168 66 67
0.629466 -0.146772 -0.00119268 187 205 201
0.631428 -0.159907 -8.7204e-06 183 208 205
0.632874 -0.17385 0.0015685 190 221 225
0.635919 -0.186939 0.00219973 206 249 249
0.434877 0.149574 0.0463304 0 44 85
0.443285 0.132293 0.0449678 93 170 239
0.477491 0.149296 0.0248204 0 71 140
0.502294 0.162442 0.0100748 4 94 86
0.517109 0.160531 0.00290009 0 87 67
0.522037 0.150919 0.00201517 0 87 69
0.526622 0.143265 0.000976002 0 88 69
0.534567 0.12211 0.000495254 0 93 80
0.541487 0.106826 -0.000449014 0 85 74
0.544793 0.0918993 0.000375101 0 73 64
0.555321 0.0732705 -0.0018345 0 54 45
0.505611 -0.0532692 0.0444759 0 88 155
0.50785 -0.0607704 0.0445978 0 79 147
0.587403 -0.0402222 0.000918797 31 121 113
0.596943 -0.0635189 -1.07442e-05 78 149 139
0.551942 -0.0989912 0.0286864 89 93 97
0.559951 -0.11274 0.0269348 231 10 0
0.56048 -0.119444 0.0277883 163 16 0
0.624666 -0.123213 -0.00405007 161 165 164
0.634262 -0.181045 0.000768313 197 238 239
0.431342 0.178848 0.0417569 0 61 96
0.434203 0.16154 0.0432311 0 45 87
0.482103 0.148108 0.0211475 0 75 143
0.527461 0.1336 0.00053866 0 92 80
0.529718 0.127577 0.000410177 0 92 79
0.534159 0.115629 0.000173811 0 86 74
0.540403 0.099763 -0.000316693 0 86 79
0.544645 0.082097 0.000515841 0 55 45
0.548117 0.075939 -0.000207678 0 53 46
0.492323 -0.0137573 0.0433407 5 69 117
0.496138 -0.0263618 0.0435334 11 99 179
0.500315 -0.0424443 0.044131 0 73 136
0.581574 -0.0318288 0.00101578 19 110 104
0.589012 -0.0522895 0.00069601 47 134 123
0.590403 -0.058646 0.00106441 64 140 133
0.623036 -0.148848 -0.000265927 188 206 202
0.47195 0.148794 0.0246771 0 81 148
0.488498 0.151983 0.0156729 1 85 93
0.497114 0.158349 0.0101791 8 92 78
0.507019 0.161492 0.00457891 6 87 69
0.510942 0.157719 0.00321939 2 86 66
0.514344 0.153152 0.00226263 0 87 66
0.519205 0.143635 0.00140661 0 87 68
0.534555 0.108082 -0.000353017 0 86 72
0.539728 0.0891811 0.000238553 0 80 68
0.549528 0.0700454 -0.00149493 0 54 47
0.583265 -0.0454918 0.00103874 34 124 116
0.558978 -0.14739 0.0308954 184 163 162
0.62304 -0.160168 0.000339013 187 208 207
0.433147 0.171555 0.0391504 25 55 117
0.436547 0.138631 0.0431045 0 74 122
0.521157 0.13549 0.000178686 0 91 77
0.527017 0.118667 8.10192e-05 0 88 74
0.534086 0.101712 -0.00061542 0 85 74
0.542002 0.0761586 -0.000257655 0 53 43
0.502565 -0.0589666 0.0433998 0 74 143
0.576773 -0.0362009 0.00133265 19 111 101
0.583383 -0.0525376 0.000765662 42 129 118
0.545576 -0.0973083 0.027941 63 77 81
0.55336 -0.112237 0.0265267 67 45 40
0.556608 -0.130031 0.027939 123 31 22
0.557458 -0.14162 0.0295092 222 19 6
0.617237 -0.136798 -0.002038 204 183 166
0.627652 -0.180635 0.000200979 189 228 234
0.631072 -0.188211 -0.000244085 199 240 241
0.428966 0.182193 0.0379796 0 88 73
0.435223 0.151432 0.0401355 0 47 99
0.501797 0.157459 0.00470031 4 87 65
0.523063 0.122945 -0.000237459 0 89 75
0.52661 0.112219 -0.000191211 0 86 72
0.533 0.0946962 -0.000422126 0 85 77
0.535513 0.0853592 -8.48187e-05 0 82 72
0.541983 0.070709 -0.000860738 0 53 46
0.494354 -0.0412528 0.0433426 0 70 137
0.506853 -0.0684696 0.0416539 81 64 120
0.57105 -0.0339093 0.00244923 14 99 98
0.576956 -0.0433295 0.0010489 25 115 107
0.616807 -0.160934 0.00106453 187 208 204
0.432222 0.176876 0.0357506 0 50 60
0.434666 0.158707 0.0377001 58 10 41
0.435821 0.143756 0.0397483 0 51 99
0.468515 0.143038 0.0229047 0 65 136
0.491368 0.154045 0.00909318 3 87 67
0.505896 0.152406 0.00184246 0 88 63
0.511248 0.143731 0.000600446 0 87 66
0.518275 0.128342 -0.000321461 0 92 79
0.528299 0.0999946 -0.000504592 0 84 73
0.536547 0.0770107 -0.000715215 0 64 54
0.489701 -0.0253583 0.0417307 0 66 127
0.497314 -0.0534469 0.042753 0 80 144
0.502606 -0.065018 0.0420555 0 80 147
0.583554 -0.0635219 -0.000227363 64 141 130
0.558049 -0.152855 0.0288323 249 158 143
0.461414 0.141198 0.025427 0 73 142
0.475039 0.145211 0.0176001 0 82 114
0.523599 0.105293 -0.000587059 0 86 74
0.536538 0.0715643 -0.00129765 0 56 47
0.484771 -0.0150671 0.0412251 0 54 103
0.569232 -0.0392438 0.00148871 9 101 91
0.574314 -0.0505274 0.000858083 34 117 107
0.576409 -0.0578011 0.00106761 44 127 117
0.5528 -0.146549 0.0292785 252 143 120
0.610194 -0.150744 8.51249e-05 186 204 200
0.611549 -0.157023 0.000502982 188 206 202
0.611695 -0.164656 0.00179311 191 212 208
0.437295 0.134016 0.0378824 3 59 115
0.481338 0.149139 0.0120477 2 85 75
0.497349 0.152891 0.00297251 3 86 64
0.505587 0.146286 -0.00015152 0 86 66
0.511493 0.133901 -0.00100631 0 92 77
0.517032 0.119038 -0.00122 0 90 77
0.519205 0.11315 -0.00129347 0 87 75
0.527287 0.0874495 -0.00087769 0 85 77
0.488493 -0.0386781 0.0423039 0 79 139
0.497921 -0.0617321 0.041534 0 81 155
0.561394 -0.0355673 0.00351107 18 94 90
0.541661 -0.102635 0.0260031 154 42 36
0.543514 -0.111064 0.0265574 90 73 73
0.61072 -0.14486 -0.00256622 192 202 194
0.452501 0.272885 0.00302763 7 88 70
0.433471 0.169395 0.0320032 0 29 50
0.48537 0.151628 0.00790061 3 84 69
0.522429 0.0944586 -0.00116624 0 84 76
0.527539 0.0801809 -0.00124629 0 84 73
0.538125 0.0644854 -0.00395257 0 73 70
0.565934 -0.0440441 0.00125793 9 101 88
0.568818 -0.0493997 0.00071811 18 110 97
0.572129 -0.0657114 0.00195874 62 138 131
0.538959 -0.0968209 0.0251373 72 106 103
0.545852 -0.122391 0.0261851 141 51 29
0.612563 -0.179325 0.00144571 194 225 224
0.620957 -0.187628 -0.00145859 208 240 247
0.45093 0.257594 0.00494968 4 92 71
0.431728 0.182644 0.0289926 0 77 78
0.442779 0.124849 0.0338341 69 16 40
0.509753 0.128254 -0.00227649 0 92 82
0.511961 0.122327 -0.00234936 0 91 80
0.530736 0.0704552 -0.00269648 0 68 60
0.482668 -0.026474 0.0407062 0 59 127
0.568185 -0.0553706 0.000750211 41 122 107
0.545767 -0.133409 0.0270685 171 42 11
0.547369 -0.144448 0.0282628 244 111 103
0.603371 -0.152976 0.000172971 184 202 198
0.604623 -0.163544 0.00146584 190 208 204
0.449985 0.25038 0.00509263 0 87 72
0.446616 0.118795 0.0315019 67 152 211
0.488308 0.153065 0.00289165 8 84 102
0.504116 0.139239 -0.0029389 0 95 82
0.514832 0.107098 -0.00263221 0 85 77
0.479062 -0.0194514 0.0400869 109 25 78
0.499426 -0.068984 0.0385097 8 56 109
0.559767 -0.0434761 0.00160962 10 97 86
0.56676 -0.0617425 0.0013028 47 128 115
0.566511 -0.0688047 0.00275674 62 136 126
0.549991 -0.151666 0.0270533 243 153 144
0.602619 -0.170543 0.00256269 191 212 208
0.443865 0.290028 -0.000825262 9 90 72
0.447534 0.112226 0.0308287 6 81 166
0.499034 0.146513 -0.00321408 0 83 108
0.516494 0.0949974 -0.00281764 0 83 75
0.519213 0.0839598 -0.00218553 0 84 78
0.521221 0.0783081 -0.00219174 0 85 79
0.553472 -0.0418242 0.00326331 10 91 78
0.560625 -0.04995 0.000971808 17 107 96
0.535553 -0.107898 0.0253454 152 30 27
0.539812 -0.123959 0.0261029 73 66 63
0.610052 -0.187233 0.000477553 203 237 237
0.434891 0.303909 -0.000416171 20 91 78
0.430905 0.18678 0.0241101 0 87 74
0.4365 0.132046 0.0315596 0 24 50
0.444541 0.103542 0.0326815 0 64 138
0.51381 0.100559 -0.004005 0 83 75
0.522618 0.0725013 -0.00338091 0 90 81
0.488537 -0.0602992 0.0403262 93 45 111
0.544399 -0.0393797 0.00628314 18 84 83
0.561411 -0.0577925 0.000651743 41 124 114
0.561954 -0.0644235 0.00162709 47 128 115
0.560785 -0.0746596 0.00421177 68 139 129
0.534615 -0.100027 0.0231347 11 32 31
0.541024 -0.139621 0.0272536 129 53 55
0.556515 -0.160419 0.0228959 250 110 104
0.597695 -0.153728 -0.000531449 190 203 193
0.59655 -0.15957 0.00120052 184 202 198
0.60486 -0.185484 0.00168269 198 229 230
0.441588 0.270217 0.00069748 3 87 70
0.444164 0.253494 0.00253429 4 88 71
0.441876 0.115081 0.0304994 12 58 121
0.44292 0.0930472 0.0341903 0 59 121
0.504285 0.130035 -0.00612467 0 93 139
0.505967 0.123356 -0.00574387 0 95 123
0.508157 0.117469 -0.00579065 54 87 90
0.510322 0.111614 -0.00583055 0 89 84
0.47697 -0.0293061 0.039411 0 78 140
0.54021 -0.14516 0.0275982 233 153 141
0.551369 -0.157195 0.0238899 234 46 38
0.596377 -0.173407 0.00269125 192 213 212
0.429019 0.302191 -0.000440714 16 90 75
0.440348 0.261958 0.0012549 0 88 70
0.443703 0.244207 0.00289633 0 88 72
0.510495 0.10596 -0.00641436 0 85 102
0.547588 -0.0439302 0.00268206 6 87 74
0.551821 -0.0496137 0.00149124 7 97 86
0.556024 -0.0567286 0.000596114 26 118 108
0.557115 -0.068496 0.00229987 53 130 119
0.533219 -0.124729 0.0262547 220 60 49
0.541619 -0.150725 0.026764 159 142 139
0.603357 -0.190928 0.00106788 204 235 236
0.431532 0.288886 -0.000951853 10 91 73
0.511937 0.0956739 -0.00675961 0 95 146
0.513438 0.0892488 -0.0063123 0 87 99
0.514327 0.0821741 -0.00540326 0 91 90
0.51633 0.0765459 -0.00538685 0 93 92
0.524398 0.0642429 -0.00736673 0 100 90
0.476475 -0.0404689 0.0394448 0 69 136
0.489943 -0.0688402 0.0376852 100 60 101
0.538609 -0.0386275 0.00515618 87 60 58
0.554162 -0.0742096 0.00367929 60 134 124
0.553021 -0.081497 0.00573941 71 138 130
0.5907 -0.168835 0.00238602 187 208 204
0.598177 -0.186224 0.00173181 196 223 223
0.434191 0.269534 -0.000302877 1 89 68
0.440017 0.238221 0.0027373 0 87 72
0.442308 0.0736509 0.0342622 0 65 127
0.442962 0.0610266 0.0364176 0 42 106
0.519882 0.069334 -0.00744597 76 90 100
0.468123 -0.0197335 0.0386983 0 52 115
0.471846 -0.0262012 0.0379433 0 71 138
0.552617 -0.0641718 0.00118492 41 124 114
0.52713 -0.120978 0.0264862 132 80 76
0.532697 -0.131389 0.025505 173 92 86
0.533816 -0.137295 0.0260676 159 113 111
0.590432 -0.175135 0.00253791 187 212 209
0.421671 0.294058 -5.29213e-05 13 89 69
0.425366 0.286164 -0.000502271 4 88 68
0.434345 0.257981 0.000217744 0 88 70
0.43907 0.23111 0.00301958 0 87 71
0.43658 0.120085 0.0267349 0 35 80
0.483993 -0.0667354 0.038183 0 95 171
0.54315 -0.0479198 0.00177278 6 93 82
0.546614 -0.0540373 0.00109331 10 102 92
0.529979 -0.102083 0.0199359 5 33 29
0.525784 -0.11258 0.0243617 20 28 28
0.534787 -0.145195 0.0259598 115 94 95
0.582644 -0.163994 0.00335057 183 201 197
0.433965 0.248637 0.000627659 0 87 72
0.428903 0.164643 0.0205078 0 40 78
0.429782 0.15614 0.0217489 0 46 83
0.442329 0.0426469 0.0378663 0 66 137
0.47826 -0.0583112 0.0384752 0 92 155
0.538436 -0.0439185 0.00219851 7 90 80
0.548473 -0.0705737 0.00205409 52 128 121
0.548139 -0.0774476 0.00363636 63 134 124
0.525377 -0.106926 0.0222443 6 24 20
0.543981 -0.156798 0.0220716 169 19 0
0.556512 -0.163372 0.0164627 87 58 53
0.588101 -0.180888 0.00251628 193 214 213
0.422916 0.275576 -0.000434272 0 88 70
0.42799 0.261452 -0.000360128 0 87 69
0.430291 0.253975 -0.000106446 0 89 71
0.433544 0.23937 0.00108057 0 86 69
0.426687 0.176914 0.0177237 0 76 68
0.427318 0.170218 0.0187475 0 35 72
0.436276 0.114316 0.0252365 0 52 85
0.439627 0.0674041 0.0330022 0 43 91
0.461825 -0.0223601 0.03907 0 96 156
0.533739 -0.0399368 0.00262453 24 91 83
0.54404 -0.0596166 0.000928069 18 110 100
0.545285 -0.0656752 0.0014788 31 121 113
0.526964 -0.131751 0.0252509 52 44 49
0.530171 -0.141907 0.0255498 68 53 58
0.549643 -0.160738 0.0185708 143 18 0
0.588324 -0.187808 0.00258481 189 221 215
0.591715 -0.193823 0.00193135 200 234 234
0.413405 0.290192 0.000144357 9 90 72
0.417059 0.282366 -0.00027747 5 88 66
0.432244 0.231305 0.0018118 0 86 69
0.425483 0.186341 0.0149216 0 85 69
0.430543 0.144493 0.020768 24 21 69
0.432762 0.134211 0.0216582 0 45 79
0.43489 0.124051 0.0225742 0 42 72
0.437456 0.0826296 0.029728 0 39 81
0.442786 -0.0223861 0.0485237 123 0 22
0.446185 -0.0357124 0.0493852 4 123 206
0.466285 -0.024724 0.0358551 0 104 178
0.53868 -0.0547326 0.00155649 7 104 93
0.543984 -0.0823021 0.00430519 61 135 125
0.581359 -0.177759 0.00318191 187 212 206
0.425426 0.251095 -0.000150223 0 88 70
0.427675 0.243699 0.000133504 0 86 71
0.468265 -0.0325212 0.0351555 115 63 137
0.470032 -0.0392691 0.0355751 0 105 190
0.470304 -0.0513041 0.0379428 128 13 61
0.541419 -0.0913511 0.00632801 76 129 121
0.52131 -0.116867 0.0229836 13 21 18
0.538058 -0.153939 0.0213278 40 40 34
0.571 -0.164616 0.00503396 186 204 200
0.581888 -0.183611 0.00288763 189 214 211
0.410228 0.280648 0.000511086 13 90 73
0.413315 0.275046 -4.93177e-05 9 86 69
0.415179 0.26963 4.25741e-05 3 87 67
0.427007 0.151772 0.0182854 8 24 81
0.436141 0.107459 0.0224951 0 34 60
0.532831 -0.0500357 0.00115078 8 100 90
0.539381 -0.0690273 0.00146528 40 123 113
0.540476 -0.076325 0.00238975 52 129 118
0.521718 -0.125439 0.0233817 17 25 25
0.404956 0.285208 0.000829563 15 89 74
0.421176 0.243063 0.000617541 0 87 66
0.423763 0.236679 0.000511271 0 85 71
0.421217 0.174624 0.0152114 0 37 77
0.42179 0.165126 0.0169149 0 38 82
0.423551 0.158397 0.0173518 0 31 86
0.435863 0.101128 0.0225894 27 27 52
0.437673 0.0477752 0.032957 0 41 79
0.439029 0.0299496 0.0359937 0 43 84
0.440836 -0.0321295 0.0482264 7 45 104
0.478031 -0.0689724 0.0349666 0 63 120
0.532229 -0.0558954 0.00138606 16 108 98
0.533478 -0.0619374 0.00196694 25 115 107
0.539423 -0.0859232 0.00371298 69 133 123
0.529707 -0.147081 0.0222947 30 34 33
0.544671 -0.158441 0.0162209 166 18 0
0.563888 -0.163873 0.00646449 188 198 187
0.58369 -0.197733 0.00244801 202 233 234
0.406048 0.275416 0.000616617 5 89 72
0.409103 0.269862 7.06904e-05 6 87 69
0.412284 0.261231 0.000115751 0 87 66
0.414221 0.252819 0.00082456 0 86 69
0.416006 0.247516 0.000949216 0 87 67
0.426843 0.145782 0.0167029 0 33 88
0.437575 0.0354723 0.0343669 0 45 89
0.438655 -0.0153818 0.0447177 0 44 88
0.442707 -0.0542431 0.0507853 0 74 142
0.471831 -0.0584705 0.0350719 65 140 202
0.527703 -0.0404873 -0.000700859 9 94 93
0.525211 -0.141763 0.0225628 24 32 29
0.570692 -0.170858 0.00287471 181 202 198
0.574758 -0.180676 0.00267116 190 211 207
0.395 0.292099 0.00163281 21 88 74
0.418048 0.169731 0.0150566 0 35 80
0.432835 0.133916 0.014373 0 13 27
0.435688 0.11122 0.0176783 0 21 44
0.435576 0.070737 0.0265574 0 42 68
0.473616 -0.0645027 0.0341842 67 74 84
0.532963 -0.0687196 0.00105841 28 118 107
0.535152 -0.0818176 0.0026544 55 129 119
0.570369 -0.176988 0.00317547 188 209 205
0.576153 -0.186204 0.00186451 188 209 205
0.394787 0.285533 0.00150241 19 90 75
0.396677 0.280097 0.00160794 20 87 73
0.401914 0.270168 0.000772153 6 87 69
0.404936 0.264661 0.000240655 5 89 69
0.40676 0.259313 0.000364614 2 86 66
0.408566 0.25399 0.000493742 0 87 66
0.409998 0.24772 0.00104683 0 88 67
0.411763 0.242451 0.00118753 0 88 70
0.41351 0.237207 0.00133335 0 86 68
0.415254 0.175445 0.0139056 13 40 65
0.420855 0.150533 0.0161531 0 31 88
0.429456 0.140436 0.0134152 0 35 69
0.435083 0.127084 0.0131068 0 21 45
0.436274 0.0530197 0.0287019 0 37 66
0.437038 -0.00742718 0.0415497 0 42 74
0.52665 -0.0494769 -0.00086287 12 103 97
0.528408 -0.0648803 0.00151015 23 115 105
0.532897 -0.0752563 0.00120293 42 122 114
0.52006 -0.110196 0.0162839 3 21 17
0.413522 0.228937 0.00152361 0 85 68
0.416334 0.160028 0.0151874 70 20 64
0.435379 0.10551 0.0162545 0 30 46
0.434936 0.0959727 0.0186276 0 30 50
0.435248 0.079632 0.0220732 62 3 2
0.435637 0.0602946 0.0261399 0 33 57
0.436535 0.00987647 0.0368086 0 44 81
0.439295 -0.0502778 0.0485599 81 29 66
0.443505 -0.0704047 0.0505877 0 75 140
0.523998 -0.0554438 0.000641124 12 109 98
0.532353 -0.0883715 0.00310931 67 120 112
0.521658 -0.134804 0.019609 18 26 26
0.546638 -0.159657 0.0106548 163 12 0
0.391294 0.278009 0.00184333 10 87 73
0.395985 0.270265 0.0008475 10 87 70
0.402133 0.256229 0.000413365 1 89 71
0.403927 0.250929 0.000556395 3 87 70
0.405821 0.242605 0.0013191 0 87 69
0.411081 0.179167 0.0124689 0 48 73
0.412139 0.170519 0.0137905 11 25 67
0.421872 0.144442 0.0139673 5 40 88
0.436023 0.121106 0.0109579 4 18 28
0.43538 0.0453559 0.028302 0 41 68
0.442123 -0.0822297 0.0529598 34 32 38
0.523336 -0.062613 0.00129317 16 111 104
0.532121 -0.0946449 0.00335565 21 42 41
0.536098 -0.153469 0.0142188 33 37 36
0.569689 -0.184112 0.00153131 184 205 204
0.386489 0.283426 0.00175902 18 89 74
0.397039 0.2606 0.000750005 6 87 69
0.405433 0.236337 0.00132681 0 86 68
0.406797 0.230175 0.00192242 0 88 70
0.408938 0.222969 0.00229945 0 86 71
0.415409 0.152204 0.0145165 0 41 90
0.435503 0.0876924 0.0173519 0 33 49
0.436503 -0.0349166 0.0444924 0 42 83
0.443311 -0.0902529 0.0530238 43 43 43
0.445987 -0.0981767 0.0532504 54 54 57
0.524461 -0.0447341 -0.00473406 56 68 69
0.52469 -0.0695841 0.000751056 29 116 105
0.527573 -0.0821153 0.00189904 51 125 115
0.522909 -0.104727 0.00973986 11 29 28
0.523496 -0.140163 0.0174095 23 27 26
0.571046 -0.189567 0.000769089 191 212 211
0.389804 0.26929 0.0013649 4 88 68
0.396738 0.254213 0.000730551 0 88 70
0.399341 0.247835 0.000656413 3 87 70
0.409047 0.165599 0.0137214 11 21 70
0.433335 0.134432 0.00655997 2 14 15
0.435239 0.0987163 0.0135931 0 25 36
0.435274 0.0655089 0.0211518 45 13 24
0.439666 -0.065821 0.048545 86 13 43
0.525342 -0.0755996 0.000422477 43 123 115
0.519436 -0.118132 0.013601 7 18 17
0.520164 -0.12776 0.0153706 14 22 22
0.527731 -0.14657 0.0152164 20 28 25
0.554949 -0.165812 0.00361115 181 199 195
0.564612 -0.181669 0.00155105 183 204 200
0.382875 0.279009 0.00156188 13 89 69
0.38474 0.273625 0.00170069 10 88 67
0.401305 0.231228 0.00168462 0 87 70
0.404333 0.219962 0.00249113 0 86 69
0.409137 0.158798 0.0137438 0 45 101
0.435319 0.0545319 0.0222994 0 32 52
0.43513 0.0375081 0.0263329 1 24 53
0.518532 -0.0586275 -0.000776648 109 118 124
0.524946 -0.0960371 0.00405256 34 70 67
0.519922 -0.11089 0.010441 2 17 14
0.549195 -0.161711 0.00485996 106 70 54
0.560295 -0.178052 0.00206935 184 205 201
0.386985 0.263838 0.000988622 3 87 70
0.390924 0.254235 0.000883479 5 89 69
0.394808 0.244707 0.000793794 1 89 68
0.397025 0.237416 0.00117306 0 88 70
0.403867 0.175025 0.0116175 0 46 87
0.421997 0.143495 0.00818916 0 19 33
0.427428 0.141954 0.005324 0 12 13
0.435993 0.0801254 0.0146151 0 23 40
0.435843 0.0716985 0.016663 0 22 41
0.434871 0.0183613 0.0296401 0 34 64
0.434921 -0.00759026 0.0356432 16 22 54
0.43569 -0.0431348 0.04345 55 24 49
0.435548 -0.0486954 0.0448273 30 17 65
0.52159 -0.0880015 0.00290556 55 119 109
0.555072 -0.171779 0.00251326 183 201 197
0.397222 0.226102 0.00209242 0 85 68
0.403249 0.166311 0.012526 0 55 115
0.433166 0.12471 0.00444728 0 33 30
0.435004 0.105008 0.00797315 0 22 24
0.435932 -0.0585172 0.0457834 12 25 71
0.445683 -0.107512 0.0514632 58 45 50
0.520813 -0.100672 0.00506059 9 40 41
0.520824 -0.133717 0.0128065 14 22 22
0.536157 -0.154303 0.00849331 31 35 34
0.5633 -0.187873 0.000184089 188 209 208
0.38905 0.244696 0.000988705 3 87 67
0.398635 0.20888 0.00372503 0 84 66
0.402632 0.160487 0.0127865 19 26 89
0.414384 0.144709 0.00948067 0 40 90
0.43348 0.11907 0.00410872 0 33 30
0.435784 0.0629109 0.0160232 0 19 36
0.434634 0.0458099 0.0207606 0 20 43
0.435487 0.0288895 0.0242557 0 26 45
0.435309 0.0233912 0.0256638 45 13 27
0.433744 -0.0204035 0.0369688 0 29 66
0.434351 -0.038429 0.0408724 0 36 76
0.516226 -0.0651675 -0.00185162 63 56 53
0.518702 -0.0727953 -0.00152974 60 88 84
0.519751 -0.0799406 -0.00046672 47 118 105
0.52292 -0.140129 0.0118837 18 26 26
0.541761 -0.158254 0.00488591 55 33 28
0.549746 -0.16754 0.00230025 171 196 190
0.554281 -0.177932 0.00204301 183 204 200
0.377088 0.266923 0.00126185 7 88 70
0.381836 0.256252 0.00095279 0 87 70
0.385233 0.248825 0.000681289 3 88 64
0.388743 0.238383 0.0010625 0 87 70
0.393971 0.219906 0.00232903 0 86 68
0.395283 0.213848 0.00298657 0 83 72
0.397705 0.177652 0.0101745 0 51 82
0.402728 0.153721 0.0128673 46 22 84
0.405972 0.147933 0.0122969 0 47 107
0.51697 -0.0941936 0.00331234 65 113 109
0.518517 -0.107728 0.00561449 0 32 29
0.519093 -0.12569 0.00955813 10 21 20
0.530338 -0.149381 0.00844788 23 31 28
0.388421 0.232107 0.00116153 0 86 66
0.394578 0.203814 0.00425627 0 81 67
0.432943 -0.0264996 0.0365594 0 31 68
0.439006 -0.0947189 0.0493338 22 26 25
0.518115 -0.119394 0.00742891 5 16 15
0.525567 -0.145134 0.00912491 19 27 24
0.544443 -0.163324 0.0020913 48 91 85
0.558777 -0.201165 0.00254091 199 226 226
0.375186 0.260325 0.000745453 6 87 69
0.379571 0.248724 0.000901562 1 89 68
0.388201 0.222851 0.00194767 0 86 69
0.392861 0.182309 0.00897383 0 63 62
0.395117 0.167851 0.0111181 0 38 83
0.397622 0.157346 0.0121504 0 33 89
0.425174 0.134641 0.00092625 0 27 23
0.427574 0.127133 0.00129323 0 39 35
0.434135 0.0954671 0.00500571 0 35 30
0.436456 0.0780648 0.00782647 0 20 21
0.436232 0.0655084 0.0110159 0 21 29
0.435012 0.0500043 0.0155277 0 24 37
0.435209 0.0354539 0.018946 0 23 40
0.433259 0.00521416 0.027484 0 24 50
0.43395 -0.0528562 0.0411847 0 34 73
0.435725 -0.0823812 0.0472857 10 18 18
0.517054 -0.113002 0.00530188 0 27 23
0.552707 -0.185155 0.00117808 189 207 203
0.554329 -0.195903 0.00280622 198 219 218
0.380587 0.239239 0.000995129 4 89 65
0.384485 0.226871 0.00164841 0 87 67
0.391997 0.172559 0.0103851 0 47 84
0.418269 0.141566 0.00194471 0 16 15
0.42951 0.115061 0.00158259 0 41 37
0.431066 0.108692 0.0021948 0 41 36
0.435668 0.0554333 0.0124501 0 20 34
0.434145 0.0118242 0.0240783 0 28 52
0.432499 -0.0173528 0.0322412 0 30 63
0.440368 -0.102106 0.0482271 29 33 32
0.443589 -0.113563 0.0490711 31 32 24
0.512058 -0.0856478 0.000411182 136 128 130
0.514802 -0.103599 0.00313917 8 44 44
0.520381 -0.13249 0.00681965 13 21 21
0.543142 -0.168754 0.00181702 165 193 183
0.547321 -0.180071 0.00204147 183 201 200
0.372691 0.251711 0.00115352 5 88 66
0.375736 0.243348 0.00135469 0 89 68
0.38077 0.230891 0.00134914 0 88 67
0.385481 0.214592 0.00249207 0 82 68
0.387551 0.207538 0.00296758 0 79 63
0.392536 0.160952 0.0114384 0 42 91
0.412387 0.142849 0.00373862 0 13 17
0.425764 0.120615 0.00103347 0 44 39
0.435785 0.0701152 0.00738222 0 20 21
0.436458 0.0293185 0.0170662 0 23 40
0.435377 0.0207959 0.0198384 12 19 32
0.432254 -0.0362772 0.0358791 0 24 59
0.433359 -0.0420359 0.036626 0 23 63
0.433368 -0.0619944 0.0415601 0 33 78
0.433638 -0.0680563 0.0428946 0 33 83
0.535294 -0.157521 0.00266232 14 64 56
0.550913 -0.191313 0.00144229 193 214 210
0.552969 -0.202622 0.00297969 198 217 220
0.386806 0.200475 0.00363501 0 71 56
0.388107 0.191613 0.00504513 0 58 44
0.394834 0.151277 0.0109677 0 37 88
0.419291 0.135518 -0.000174573 0 34 27
0.429887 0.10137 0.00181768 0 41 37
0.431153 -0.0227005 0.0320107 15 22 70
0.433893 -0.0761807 0.0436729 84 0 12
0.530503 -0.15324 0.00335309 7 55 48
0.53815 -0.163506 0.00120208 49 99 91
0.541251 -0.176208 0.00246093 181 199 195
0.369721 0.245209 0.00141055 4 89 65
0.372251 0.23897 0.00141437 0 88 70
0.379374 0.21946 0.00191563 0 85 68
0.38629 0.178911 0.00784246 0 49 70
0.386366 0.170283 0.00996813 0 39 81
0.397125 0.14447 0.00980429 0 56 104
0.406363 0.142015 0.00470097 0 16 23
0.439606 -0.108665 0.0472364 34 40 33
0.510032 -0.0952206 0.000229562 185 175 164
0.512934 -0.109064 0.00191819 0 45 41
0.515996 -0.124543 0.00391951 0 35 29
0.537031 -0.169836 0.00229648 159 187 180
0.373714 0.227525 0.00182383 0 90 71
0.37992 0.209259 0.00260136 0 78 63
0.385849 0.1644 0.0103051 0 46 90
0.418296 0.127933 -0.000624503 0 46 40
0.435056 0.0628566 0.00547447 0 28 26
0.430206 -0.0030073 0.0252222 6 13 35
0.445428 -0.119947 0.0454509 46 45 45
0.513612 -0.117825 0.00248081 0 40 37
0.521005 -0.140523 0.00364527 2 43 42
0.525511 -0.147992 0.00273814 3 51 47
0.540415 -0.182194 0.00215018 187 205 198
0.544901 -0.193894 0.00232992 202 220 219
0.373121 0.220279 0.00247984 0 86 65
0.382469 0.189304 0.00457019 0 56 47
0.386033 0.157591 0.0104658 0 41 89
0.400422 0.141107 0.0056921 0 19 29
0.412323 0.136468 -0.000560111 0 34 28
0.418832 0.117808 0.000150326 0 47 43
0.421127 0.110474 0.000593802 0 46 42
0.436531 0.05011 0.00642673 0 21 19
0.433053 -0.0869471 0.043712 9 17 17
0.43425 -0.0928057 0.0444646 11 19 19
0.450792 -0.126353 0.0427159 91 64 59
0.450946 -0.132229 0.0441248 194 183 181
0.516389 -0.130803 0.0028423 0 43 40
0.53235 -0.163571 0.00125691 57 98 94
0.547337 -0.204951 0.00248711 204 225 224
0.363584 0.24063 0.00165545 7 91 71
0.373582 0.213052 0.00249971 0 84 64
0.377587 0.202013 0.00283587 0 69 55
0.3796 0.195065 0.00336682 0 57 46
0.38761 0.148927 0.0102557 0 53 111
0.391536 0.145071 0.00878559 0 41 93
0.426904 -0.0142285 0.0277257 14 23 66
0.427072 -0.0201154 0.0291412 0 38 81
0.428972 -0.0325738 0.0311665 0 28 77
0.431203 -0.0468927 0.0334643 0 33 78
0.432209 -0.0539048 0.0346441 0 25 60
0.506567 -0.104198 0.000928227 177 166 164
0.528425 -0.15902 0.001362 13 66 60
0.364629 0.231202 0.0018743 4 88 68
0.366791 0.224059 0.00237101 0 87 66
0.380303 0.164926 0.00925072 0 36 84
0.41958 0.102299 0.000780145 0 46 42
0.434306 0.0556723 0.00363555 0 34 30
0.429765 0.000988251 0.0207498 0 20 33
0.426761 -0.0260747 0.0296976 89 0 19
0.432697 -0.0821036 0.0405499 0 38 80
0.439243 -0.117748 0.0457064 70 76 69
0.530277 -0.172122 0.00241972 175 193 189
0.366986 0.215796 0.00286277 0 82 63
0.377776 0.180136 0.00539144 0 54 45
0.40537 0.134619 -0.000145297 0 41 36
0.409295 0.127937 -0.00087861 0 47 40
0.412367 0.119578 -0.000630077 0 47 43
0.437462 0.0308332 0.00677647 0 17 19
0.435195 -0.105872 0.0441352 15 20 21
0.507724 -0.111493 -0.000376958 53 84 98
0.515337 -0.138655 0.00193233 0 51 48
0.52326 -0.154938 0.00118734 10 63 57
0.52693 -0.165511 0.00163875 62 115 107
0.538819 -0.19559 0.00200339 196 214 213
0.369388 0.204591 0.00276023 0 68 54
0.371737 0.198618 0.0028465 0 59 47
0.374887 0.18875 0.00345456 0 55 42
0.376663 0.172268 0.00669018 0 51 92
0.37964 0.154173 0.00958803 0 27 82
0.393173 0.141643 0.00428702 0 22 31
0.413154 0.107769 0.00053416 0 47 43
0.417747 0.0959634 0.000736278 0 46 42
0.432304 -0.0659632 0.0343681 28 15 50
0.433732 -0.100303 0.0425578 13 18 19
0.441103 -0.124298 0.0442194 48 49 43
0.449071 -0.137815 0.0427251 157 142 147
0.509543 -0.127371 0.00143473 0 48 45
0.511381 -0.134068 0.00203824 0 48 43
0.518764 -0.14962 0.00145547 1 58 54
0.398411 0.136545 0.000837326 0 28 23
0.421913 -0.0188995 0.027327 0 27 72
0.426165 -0.0400931 0.0302688 13 23 69
0.435478 -0.111726 0.0434472 19 23 22
0.450934 -0.145148 0.0424848 79 157 213
0.507942 -0.120321 -0.000634368 0 47 60
0.514268 -0.144301 0.00172359 2 55 52
0.521815 -0.161473 0.00148138 27 84 74
0.357006 0.226397 0.00178598 0 88 67
0.359151 0.219299 0.00231881 1 86 62
0.361557 0.213258 0.00239969 0 81 58
0.369784 0.192371 0.00273678 0 54 43
0.381051 0.146313 0.00790021 0 48 99
0.404853 0.121387 -0.000689129 0 49 42
0.41235 0.0986665 0.0006106 0 48 44
0.426853 -0.0459346 0.030241 41 22 75
0.431659 -0.0903482 0.0391156 6 14 14
0.533907 -0.192475 0.000884134 195 213 209
0.362041 0.206068 0.0025074 0 70 52
0.372327 0.166985 0.00647875 0 39 77
0.37348 0.158416 0.00806115 0 31 87
0.385475 0.142313 0.00468717 0 25 43
0.400774 0.125984 -0.000760691 0 51 43
0.405406 0.11134 0.000224444 0 51 45
0.420121 -0.0263573 0.0281211 0 36 82
0.421904 -0.0329632 0.0287637 36 15 72
0.427503 -0.0517125 0.0302398 0 36 84
0.517525 -0.15713 0.000721197 8 68 62
0.520302 -0.167878 0.00184707 129 160 159
0.522328 -0.174812 0.00242108 174 192 185
0.527619 -0.186127 0.0020769 189 204 201
0.368975 0.183223 0.00274162 0 53 40
0.375098 0.149763 0.00793099 0 40 93
0.42021 0.0709685 0.000233027 0 44 41
0.414966 -0.0159383 0.0274357 44 17 41
0.429217 -0.058908 0.0299549 0 42 91
0.44226 -0.13391 0.0420295 36 36 36
0.507756 -0.141918 0.0017179 0 55 55
0.511942 -0.150344 0.00130816 1 61 55
0.532486 -0.201763 0.00205702 212 227 224
0.355015 0.21367 0.00194147 0 82 56
0.361649 0.197762 0.00200838 0 59 42
0.363963 0.191854 0.00213047 0 59 42
0.390112 0.137142 0.000187292 0 41 37
0.395072 0.130483 -0.00120799 0 53 47
0.399457 0.117594 -0.000508387 0 56 48
0.403984 0.103114 0.000537761 0 51 45
0.406601 0.096801 0.000574985 0 49 44
0.45116 -0.152064 0.0402329 0 60 97
0.504235 -0.135104 0.000946206 0 53 52
0.515503 -0.162834 0.00125602 104 139 126
0.5281 -0.192349 0.00119205 195 213 209
0.367493 0.172228 0.00377701 0 52 40
0.376155 0.143817 0.00601089 0 55 112
0.400011 0.107594 0.000468041 0 56 48
0.434932 -0.119686 0.040855 20 24 23
0.445476 -0.142233 0.0402243 50 60 71
0.502737 -0.128214 -0.00118305 37 109 169
0.51056 -0.156897 0.00167615 15 75 69
0.354407 0.204276 0.00192115 1 67 47
0.363202 0.182691 0.00218989 0 59 44
0.368674 0.153001 0.0069202 0 33 86
0.393508 0.123848 -0.00124122 0 73 64
0.404843 0.0904746 0.000664061 0 49 44
0.413921 -0.0236606 0.0267148 0 35 80
0.421946 -0.0483992 0.028376 0 39 94
0.431707 -0.0880384 0.0330752 0 26 59
0.432543 -0.108713 0.0383258 11 16 17
0.506182 -0.151718 0.00193724 1 61 55
0.513428 -0.168429 0.00185822 175 190 184
0.349019 0.211999 0.00178678 1 79 52
0.359364 0.188347 0.00163779 0 60 45
0.369925 0.146275 0.00655616 0 44 95
0.378602 0.13881 0.00293208 3 22 25
0.384209 0.134072 0.000565884 0 51 42
0.388781 0.129328 -0.00111468 0 71 60
0.40025 0.0957995 0.000787026 0 51 45
0.41301 0.0675105 0.000353187 0 46 42
0.408991 -0.0191407 0.0275179 0 30 69
0.41592 -0.0340218 0.0271467 0 35 86
0.431464 -0.0772053 0.0290855 0 17 47
0.431306 -0.0951238 0.0342578 0 13 22
0.431847 -0.101428 0.0356835 5 13 13
0.501265 -0.141631 0.00116676 0 56 55
0.522578 -0.193955 0.00187721 198 216 215
0.525517 -0.199295 0.0014449 215 230 227
0.353626 0.197943 0.00121791 0 61 43
0.3613 0.176499 0.0022359 0 56 39
0.364426 0.161159 0.00453299 0 39 76
0.394513 0.10823 -0.000356871 135 136 130
0.41667 -0.0399019 0.0271618 0 38 90
0.422708 -0.0563659 0.0278456 0 41 92
0.428495 -0.0710987 0.0282032 71 7 37
0.436817 -0.131019 0.0397597 23 22 22
0.509494 -0.163133 0.000653208 162 180 176
0.51295 -0.17613 0.00206355 174 192 185
0.361341 0.168607 0.00299864 0 52 37
0.370978 0.140369 0.00468426 0 63 125
0.390726 0.118028 -0.00206997 0 79 68
0.3918 0.0985045 0.00282391 15 78 78
0.398948 0.0902986 0.000413477 0 52 46
0.401483 0.0841137 0.000499803 0 51 45
0.404894 0.075361 0.000739273 0 49 44
0.435074 -0.125109 0.0382139 21 21 24
0.438954 -0.137273 0.0391209 24 24 24
0.497354 -0.135008 -0.000488873 94 166 226
0.502702 -0.156098 0.00200338 68 116 112
0.514152 -0.183988 0.00237969 180 198 191
0.345023 0.206311 0.00155035 1 70 46
0.347363 0.200391 0.00169658 3 66 39
0.352977 0.188687 0.00132437 0 61 43
0.364267 0.148527 0.00538986 0 40 91
0.378401 0.13094 0.00101172 0 73 64
0.382543 0.12538 -0.000153378 0 79 68
0.385994 0.120746 -0.00112429 0 79 69
0.406868 0.0649412 0.00105001 0 46 42
0.422822 -0.0648197 0.027942 0 29 93
0.431644 -0.0836099 0.0274717 10 10 35
0.444887 -0.151393 0.0382295 36 110 179
0.450416 -0.157427 0.036272 97 177 241
0.348863 0.193325 0.0012522 1 64 37
0.354125 0.180712 0.00139181 0 61 42
0.37305 0.134497 0.0021419 0 66 61
0.381086 0.0931917 0.0087897 108 112 116
0.389489 0.0930067 0.00318652 0 73 65
0.416538 -0.0515033 0.0271615 79 16 65
0.432881 -0.115059 0.0347117 9 14 15
0.497199 -0.151475 0.00204181 52 109 105
0.503715 -0.164385 0.0014236 166 187 183
0.518511 -0.199508 0.00171558 210 225 219
0.355634 0.170881 0.00178595 0 62 46
0.359743 0.155669 0.003483 2 51 55
0.363989 0.141656 0.00473369 37 44 113
0.392323 0.0883779 0.00124617 0 70 64
0.398388 0.0760789 0.000762591 0 51 48
0.408463 0.0528567 0.000781443 0 44 39
0.406606 -0.0277639 0.0257559 0 43 101
0.432183 -0.0898083 0.0267117 8 15 43
0.440812 -0.144336 0.036918 0 68 129
0.492923 -0.142267 0.00106722 0 79 140
0.499211 -0.160405 0.00215128 150 175 167
0.518209 -0.208075 0.00332775 220 228 228
0.356384 0.162089 0.00241996 0 55 41
0.375413 0.124091 0.000758377 0 80 70
0.380548 0.11858 -0.00109628 0 81 67
0.39459 0.080361 0.000695942 0 60 57
0.398843 0.0691181 0.00114026 0 51 45
0.411338 0.0426578 0.000496198 0 44 41
0.401716 -0.0218903 0.0261715 0 31 92
0.409097 -0.0373335 0.0257358 0 47 101
0.411894 -0.0466225 0.0265895 0 36 90
0.416205 -0.0579432 0.0270176 0 40 93
0.432564 -0.0771404 0.0215954 0 15 25
0.43199 -0.106803 0.0307803 33 18 29
0.505948 -0.183964 0.00341329 179 197 190
0.340735 0.197436 0.00108881 3 66 39
0.343036 0.191584 0.00126714 1 64 37
0.346018 0.184817 0.00125385 0 62 44
0.349382 0.176156 0.00154576 0 60 42
0.366052 0.135817 0.00222262 0 64 59
0.371877 0.0865523 0.0129669 193 38 28
0.400555 0.0604825 0.00118483 0 49 44
0.426622 -0.0725978 0.0231587 27 9 17
0.432236 -0.100857 0.0277711 2 30 51
0.493547 -0.156924 0.00268168 147 172 166
0.509441 -0.193459 0.00275113 186 201 195
0.511973 -0.199622 0.0028643 199 210 209
0.402 0.0536012 0.000910247 0 47 43
0.435034 -0.0666261 0.0144639 9 9 15
0.439565 -0.0713296 0.012774 0 12 25
0.43292 -0.0955176 0.0246125 22 18 40
0.435541 -0.134906 0.0346749 18 22 26
0.49625 -0.165369 0.00222835 161 186 180
0.348289 0.169001 0.00153675 0 59 42
0.35047 0.163319 0.00175941 0 60 45
0.357273 0.141785 0.00360755 83 7 9
0.367085 0.12999 0.000429604 0 90 78
0.390911 0.0732033 0.0012513 0 68 62
0.394852 0.063779 0.00139667 0 53 46
0.404237 0.0442898 0.000846519 0 44 39
0.401818 -0.0309911 0.0253529 0 55 119
0.432705 -0.0848579 0.0204265 0 18 38
0.433852 -0.124973 0.0318078 8 16 19
0.488017 -0.149476 0.00194098 127 158 157
0.351512 0.155563 0.00196389 0 59 44
0.353326 0.149 0.00271542 0 58 44
0.360178 0.134297 0.00247036 1 77 73
0.372266 0.115317 -8.86688e-05 0 83 72
0.384571 0.0809107 0.00191787 0 78 67
0.405766 0.0359449 0.00100307 0 44 39
0.395835 -0.0222645 0.0256685 6 30 107
0.410773 -0.0574537 0.0260932 0 40 93
0.421401 -0.074474 0.0239448 16 8 13
0.44883 -0.162205 0.0317917 26 107 187
0.494195 -0.17083 0.00304722 174 192 188
0.503942 -0.190796 0.00240826 180 198 191
0.33652 0.188583 0.000774291 6 66 38
0.338781 0.1828 0.000984706 6 62 38
0.341435 0.175115 0.00150779 0 62 44
0.365631 0.0849256 0.0124772 197 9 1
0.396675 0.0501154 0.00162824 0 46 42
0.408789 0.0283557 -8.6502e-05 0 44 41
0.439651 -0.151844 0.0339784 32 54 109
0.489462 -0.162389 0.00261403 152 177 171
0.496169 -0.181011 0.00368997 176 191 185
0.499565 -0.186945 0.00315775 181 196 190
0.346099 0.159766 0.00156355 0 63 44
0.368606 0.121316 -0.00221261 0 85 73
0.396778 -0.0276417 0.0243561 0 57 124
0.400186 -0.0363344 0.0246748 157 0 27
0.403524 -0.0463042 0.0254391 0 56 116
0.436955 -0.0596303 0.00624071 14 8 13
0.439187 -0.0667435 0.00689028 0 12 13
0.43527 -0.0902975 0.0169349 0 20 37
0.437378 -0.146637 0.0329499 0 49 104
0.485519 -0.156389 0.00237386 140 172 166
0.351325 0.140943 0.00234916 0 70 58
0.358053 0.129171 0.00131365 0 91 78
0.372854 0.0805256 0.00614769 159 16 2
0.383339 0.0719297 0.00148448 0 80 70
0.386376 0.0651123 0.00148718 0 77 68
0.390228 0.0558295 0.00168884 0 61 57
0.397972 0.0399526 0.00122443 0 46 42
0.405818 -0.0541606 0.0251535 0 41 95
0.440748 -0.0791355 0.00847206 0 17 25
0.434224 -0.0991487 0.0193052 0 24 49
0.433032 -0.10577 0.022211 0 24 46
0.433134 -0.115498 0.0251816 14 18 42
0.442021 -0.157572 0.032108 8 72 138
0.340709 0.163946 0.00116727 0 65 48
0.346345 0.150906 0.00130617 3 77 62
0.360563 0.123607 -0.000107107 0 89 72
0.40134 0.0291815 0.000923699 0 44 41
0.40507 0.0241732 -0.000125658 0 44 41
0.408328 0.0184305 -0.000611118 0 44 39
0.409105 -0.0633406 0.0246039 0 36 88
0.437702 -0.0853152 0.0113865 3 17 27
0.433163 -0.121637 0.0260268 0 33 60
0.436568 -0.14126 0.0298109 0 39 86
0.482437 -0.150848 0.00052691 97 155 182
0.331947 0.181699 0.000294324 4 67 38
0.333915 0.174958 0.00104173 0 65 38
0.342467 0.155277 0.00123814 0 72 53
0.350437 0.135012 0.00203204 0 87 69
0.362061 0.11804 -0.00080403 0 89 70
0.390599 -0.0213876 0.0232613 0 42 105
0.394693 -0.0337156 0.0242782 0 64 125
0.39803 -0.0422945 0.0246407 0 62 129
0.440173 -0.0961433 0.0119182 0 23 44
0.434118 -0.129005 0.0266324 0 33 62
0.484301 -0.166319 0.00297466 156 181 175
0.489297 -0.179858 0.00373781 174 192 185
0.335341 0.168103 0.000775018 0 64 45
0.345217 0.143928 0.00148737 0 87 72
0.355585 0.0863439 0.0125327 147 119 123
0.360179 0.0788118 0.0116767 208 9 2
0.376905 0.0740948 0.00129981 35 106 93
0.383568 0.0596912 0.00117074 0 76 66
0.393141 0.0372867 0.00153191 0 47 43
0.433054 -0.111815 0.0208458 23 20 33
0.485786 -0.173061 0.00295809 166 187 183
0.491682 -0.187799 0.00348112 179 197 190
0.501869 -0.208299 0.00279703 214 225 221
0.352176 0.125584 0.00101779 0 89 70
0.378443 0.0671545 0.00109063 0 81 72
0.386068 0.0487408 0.00157907 0 71 63
0.393841 0.031492 0.00158718 0 46 42
0.411 -0.0719401 0.0226568 56 34 83
0.44059 -0.0857776 0.00599349 1 16 16
0.442041 -0.0918133 0.00690213 2 19 27
0.44389 -0.0997464 0.00813767 25 18 32
0.479813 -0.161602 0.00242185 144 176 170
0.497378 -0.19881 0.00187008 195 206 202
0.502963 -0.214484 0.00293252 212 223 222
0.335694 0.159146 0.000550457 0 75 53
0.338885 0.150779 0.000977335 0 84 60
0.344445 0.13515 0.00206254 0 90 73
0.347432 0.129779 0.00166387 0 91 71
0.355975 0.115588 0.000143793 0 90 72
0.3997 0.0215043 -0.000676045 0 46 42
0.434948 -0.0639197 0.00177173 0 17 13
0.438299 -0.0725015 0.00215359 2 13 12
0.437157 -0.14989 0.0280842 0 33 77
0.327885 0.172876 0.000261167 7 70 41
0.35222 0.11982 7.79127e-05 0 88 70
0.353993 0.078033 0.0124596 202 10 3
0.364211 0.0751857 0.0060321 130 12 0
0.370174 0.0753335 0.00168987 16 80 70
0.377826 0.0609834 0.000869792 0 79 70
0.380778 0.0543014 0.00092749 0 76 67
0.387385 0.0386377 0.00128991 0 63 56
0.393613 0.0248399 0.00131444 0 46 42
0.392199 -0.0398445 0.0234759 0 63 123
0.432392 -0.118267 0.0201643 7 21 41
0.434758 -0.135032 0.0239403 64 7 21
0.442052 -0.159771 0.0267743 0 54 102
0.44538 -0.164239 0.0258381 0 72 123
0.496837 -0.204789 0.00203586 208 216 213
0.330143 0.162222 0.00069849 0 80 56
0.337822 0.14377 0.00121886 0 89 67
0.395616 -0.0505214 0.0233837 127 0 52
0.428957 -0.0600033 0.00238884 7 12 13
0.43243 -0.124373 0.0210697 0 27 51
0.48436 -0.185952 0.0037811 178 193 187
0.338827 0.136185 0.0016012 0 90 74
0.348365 0.0773061 0.0141971 177 33 0
0.358672 0.0729541 0.00815213 182 9 0
0.380102 0.048248 0.000775753 0 75 69
0.383663 -0.0242871 0.0222433 29 37 110
0.399953 -0.0624188 0.0230536 0 46 109
0.444351 -0.104411 0.0047223 17 35 34
0.490688 -0.199144 0.00247286 191 202 198
0.330506 0.153314 0.000559755 1 89 71
0.341087 0.126929 0.00165126 0 88 73
0.345962 0.119031 0.000731955 0 88 70
0.346288 0.0901768 0.0101324 248 104 0
0.380882 0.0423777 0.000852918 0 76 67
0.391858 0.0181696 0.000929481 0 46 42
0.386774 -0.0358985 0.0226997 0 56 121
0.39643 -0.0569814 0.0226955 0 66 134
0.437683 -0.0771843 -0.000661128 0 30 25
0.43985 -0.0828003 -0.000366746 0 27 22
0.442822 -0.09491 0.00150918 8 16 19
0.472802 -0.163577 0.00256789 140 172 166
0.494437 -0.214275 0.00371411 211 219 219
0.323895 0.164075 0.000375025 1 84 59
0.326707 0.157596 0.000493106 5 89 69
0.344006 0.0951834 0.00881088 160 90 40
0.351082 0.0721707 0.0113667 211 30 14
0.364848 0.0712547 0.00158405 10 84 74
0.371926 0.0604006 4.76105e-05 0 86 71
0.441506 -0.0897711 -0.000431326 0 25 22
0.435466 -0.143822 0.0221803 33 23 54
0.478806 -0.184442 0.00407867 172 190 183
0.330177 0.145373 0.000667982 0 90 72
0.331977 0.138909 0.00153356 0 87 70
0.372783 0.0544355 0.000113816 0 80 68
0.380353 0.0348256 0.00118487 0 74 69
0.384516 0.0251885 0.00138561 0 62 58
0.388812 -0.0467006 0.0225817 131 1 50
0.403958 -0.072433 0.0201501 107 0 16
0.434636 -0.0717892 -0.00265409 0 24 24
0.444046 -0.100615 0.000185805 86 16 27
0.445325 -0.160358 0.019487 0 62 104
0.326423 0.149605 0.000602102 0 92 74
0.332615 0.133206 0.00161917 0 89 74
0.367283 0.0651013 -0.000775251 20 97 86
0.37404 0.0452484 0.00100266 0 76 67
0.399395 -0.0682971 0.0210015 136 0 32
0.430246 -0.0665967 -0.00239229 0 23 20
0.435623 -0.151972 0.0227665 22 55 72
0.439451 -0.157112 0.0216897 10 53 73
0.469945 -0.168406 0.00299515 147 175 168
0.474512 -0.179928 0.00354975 168 186 179
0.322668 0.153838 0.000536221 2 94 69
0.337481 0.117803 0.00191893 0 88 70
0.339428 0.112497 0.00229599 0 89 71
0.341914 0.0822464 0.0108461 233 99 12
0.344482 0.0720702 0.012436 200 15 0
0.383298 -0.0405985 0.0223278 58 65 131
0.394347 -0.06216 0.0215322 0 47 126
0.357925 -0.18685 0.0914358 192 81 104
0.48537 -0.203206 0.00240175 189 200 196
0.488936 -0.213376 0.00324845 204 212 212
0.331565 0.126303 0.00202713 0 90 74
0.341224 0.0891472 0.00768156 142 40 0
0.359614 0.0671442 0.00157817 11 85 72
0.452989 -0.145565 0.00554184 90 133 127
0.321111 0.147602 0.00106828 3 93 68
0.323188 0.142129 0.00141938 0 91 78
0.326897 0.133124 0.00177926 0 89 70
0.339554 0.0960027 0.00523417 243 102 0
0.352197 0.0682941 0.00541944 55 52 38
0.364543 0.0570863 7.57362e-05 1 89 74
0.36849 0.0464195 0.00083622 0 80 71
0.372924 0.035098 0.00145953 0 76 67
0.380785 0.0191774 0.0011192 0 67 64
0.3174 0.151785 0.00100317 4 92 71
0.33723 0.101041 0.00389056 118 62 28
0.338051 0.0744796 0.0125956 169 57 51
0.3654 0.0511619 0.000199331 0 83 72
0.373841 0.0277685 0.00205754 0 73 69
0.38957 -0.0590097 0.0206781 0 65 133
0.344483 -0.164636 0.09168 147 8 11
0.453178 -0.151108 0.00513685 103 139 136
0.457035 -0.157627 0.00452209 120 154 151
0.473236 -0.191438 0.00419757 174 192 188
0.481278 -0.207594 0.00381672 193 204 200
0.329488 0.117362 0.00264201 0 89 71
0.340505 0.0677797 0.011839 205 16 15
0.35769 0.0607645 0.00132961 6 87 72
0.367467 0.0396089 0.00141682 0 79 70
0.383611 0.0125821 -0.00123274 0 60 57
0.4757 -0.198033 0.00360277 177 195 188
0.478318 -0.202886 0.00333924 188 199 195
0.485196 -0.217472 0.00329636 196 207 206
0.315895 0.145527 0.00158623 6 96 71
0.329343 0.063332 0.0206293 179 168 166
0.380537 -0.0481588 0.0214459 34 41 121
0.392919 -0.0674552 0.0189139 0 71 139
0.352226 -0.179851 0.0898036 130 0 11
0.320922 0.129983 0.00194529 0 92 72
0.344142 0.0654487 0.00736733 177 8 0
0.361442 0.0448906 0.00154448 0 83 71
0.374009 0.0186784 0.0013566 0 74 65
0.369217 -0.0229254 0.0199181 0 43 105
0.460042 -0.168883 0.0029759 140 172 166
0.46593 -0.184795 0.00418845 165 186 182
0.316677 0.134903 0.0020589 1 92 74
0.323444 0.12182 0.00159763 0 90 71
0.348004 0.0648624 0.00334299 12 71 57
0.354575 0.0560405 0.00149461 6 87 72
0.366183 0.031128 0.00159457 0 76 66
0.360109 -0.192566 0.086958 179 106 113
0.449157 -0.14423 0.00133096 187 75 89
0.451358 -0.156512 0.00407746 118 153 146
0.312433 0.139822 0.00217251 4 94 66
0.355446 0.0501409 0.00167446 0 85 74
0.362227 0.0357143 0.00170048 0 80 70
0.381542 -0.0567472 0.0204366 0 69 134
0.324918 0.0996952 0.00584249 220 179 46
0.374955 0.0112572 -0.000456866 0 72 68
0.371127 -0.0354234 0.019574 0 47 126
0.44938 -0.149785 0.000963454 188 89 98
0.468736 -0.197031 0.00329471 178 193 187
0.471153 -0.204263 0.00407276 183 198 192
0.315074 0.12676 0.00220097 0 89 71
0.324729 0.11247 -2.65918e-05 13 94 76
0.320995 0.0630842 0.0210574 165 182 70
0.356514 0.039279 0.00227057 0 83 76
0.365444 0.0219829 0.00171311 0 75 67
0.45879 -0.178971 0.00330607 146 174 170
0.475145 -0.215523 0.00408036 189 200 199
0.309651 0.133274 0.00266186 0 95 68
0.319427 0.116173 0.00138541 0 88 67
0.361549 0.0264978 0.00181737 0 78 68
0.367274 0.0148372 0.00168074 0 73 69
0.344387 0.0580872 0.00219694 18 89 74
0.347818 0.0508339 0.00221932 10 87 70
0.376 -0.0544783 0.0194781 0 60 130
0.447933 -0.161638 0.00319419 120 155 145
0.462402 -0.194294 0.00406267 170 188 184
0.46983 -0.210883 0.00444225 188 199 195
0.314763 0.0588183 0.023918 164 177 99
0.336488 0.0613588 0.00589156 101 12 0
0.349841 0.0434307 0.00213522 0 87 75
0.356481 0.0292323 0.00225347 0 81 74
0.362735 -0.0254055 0.0178705 0 48 116
0.372071 -0.0498301 0.0197125 0 56 124
0.445703 -0.155292 0.00148219 205 94 114
0.45327 -0.176021 0.0033253 144 172 168
0.309964 0.122637 0.00237445 0 89 76
0.313388 0.116721 0.00191056 0 89 71
0.352606 0.0337233 0.00235718 0 85 76
0.449734 -0.170558 0.00298388 129 163 160
0.457652 -0.187785 0.00325184 159 184 181
0.464899 -0.201472 0.00271066 182 197 194
0.305844 0.127413 0.00248477 2 94 69
0.320289 0.0566415 0.0179877 176 75 25
0.366814 0.0073507 -0.000117109 0 72 68
0.346003 -0.178125 0.0870126 110 0 7
0.34918 -0.18766 0.0881257 137 10 22
0.36319 -0.0371584 0.018589 0 44 119
0.374613 -0.0617023 0.0189061 0 53 126
0.323548 -0.182577 0.105892 99 112 64
0.34188 -0.171671 0.0871186 104 124 68
0.451374 -0.181862 0.00386917 149 174 168
0.335871 0.0566883 0.00309277 11 75 62
0.347179 0.0362517 0.0019395 0 83 72
0.351027 0.0284578 0.00187083 0 84 73
0.354634 0.0223022 0.00136325 0 81 71
0.357836 0.0153757 0.00147633 0 77 68
0.360827 0.0100466 0.00114194 0 74 66
0.442333 -0.165063 0.00356077 236 176 179
0.456091 -0.194044 0.00374604 172 190 186
0.314363 0.0533685 0.0203807 153 173 54
0.323835 0.0563928 0.0116018 182 10 6
0.37037 -0.057243 0.0183835 0 56 128
0.319766 -0.176881 0.105484 54 53 13
0.464706 -0.215379 0.00407583 181 192 188
0.467673 -0.221985 0.00426038 187 198 197
0.303534 0.120943 0.00149989 0 91 69
0.312829 0.109773 -0.00162702 9 93 76
0.338082 0.0483621 0.00202468 5 89 69
0.306848 0.11313 0.00056116 0 91 69
0.327293 0.0569064 0.00613516 98 13 1
0.44973 -0.189878 0.00412441 162 183 179
0.457396 -0.205402 0.00402704 185 196 195
0.304128 0.0494307 0.0266831 129 174 90
0.308858 0.0509169 0.0222481 163 192 63
0.331456 0.0532283 0.00295625 15 82 68
0.339343 0.0400279 0.00177258 0 89 71
0.34643 0.0252888 0.0018486 0 88 76
0.354998 0.008561 0.00150795 0 75 67
0.360259 -0.0455211 0.0186542 0 57 126
0.370859 -0.0662835 0.0182593 160 0 33
0.440235 -0.171182 0.00340024 175 98 106
0.443087 -0.177622 0.00363286 140 172 166
0.317406 0.0531284 0.0132105 204 33 22
0.341526 0.0311783 0.00226532 0 89 78
0.349404 0.01669 0.0016095 0 80 72
0.358077 0.00243675 0.000209659 0 74 66
0.362488 -0.0517405 0.0182092 0 64 131
0.348709 -0.201484 0.0891663 143 0 19
0.445263 -0.185045 0.0037646 154 179 176
0.451593 -0.19876 0.00406411 175 190 187
0.459283 -0.211693 0.00294076 190 198 195
0.299847 0.115093 0.00152939 0 89 71
0.333331 0.0440923 0.00256284 8 92 75
0.350105 0.0111541 0.00202547 0 80 71
0.350432 -0.0257498 0.016567 58 28 104
0.346494 -0.196276 0.088229 115 0 8
0.355645 -0.0411808 0.0173783 9 36 121
0.36287 -0.0573836 0.017972 0 60 130
0.459227 -0.220562 0.00452309 186 198 199
0.306095 0.105236 -0.00226829 25 94 70
0.298738 0.0475891 0.0272499 77 163 164
0.334814 0.0342147 0.00284948 0 86 69
0.342865 0.0182108 0.00269605 0 87 77
0.342136 -0.182086 0.0847187 82 100 41
0.349809 -0.0332861 0.0167734 104 16 83
0.364219 -0.0655985 0.0180248 0 60 132
0.343751 -0.191125 0.086378 91 18 0
0.449892 -0.203963 0.00347317 177 192 189
0.321194 0.051125 0.00477136 9 68 51
0.336212 0.0244875 0.00321207 0 88 74
0.343372 0.0109907 0.00279733 0 83 73
0.347724 0.00514767 0.00157308 0 78 67
0.349527 -0.207028 0.087426 155 18 40
0.452433 -0.209236 0.00250424 179 194 191
0.298566 0.107967 -0.00106797 2 90 69
0.307413 0.0495452 0.0157287 182 15 0
0.320205 -0.182249 0.101057 102 0 0
0.436079 -0.178794 0.00257011 169 128 134
0.438562 -0.186006 0.00347867 153 174 173
0.453458 -0.216348 0.00357412 189 197 197
0.327784 0.037028 0.00262297 2 90 75
0.348513 -0.00113031 0.00109846 0 76 68
0.357256 -0.0567625 0.016942 0 41 119
0.364171 -0.072502 0.0176883 0 73 142
0.299372 0.0461309 0.021569 155 183 64
0.312782 0.0500427 0.00860107 176 14 0
0.322961 0.0428215 0.0030329 19 90 77
0.331055 0.0267984 0.00291981 0 87 76
0.337125 0.014782 0.00283523 0 85 73
0.35342 -0.0509261 0.0166431 161 0 21
0.443339 -0.200011 0.00324932 178 189 188
0.342317 0.00199283 0.00262023 0 79 68
0.344154 -0.0313677 0.0151486 0 53 120
0.351912 -0.211699 0.084715 155 11 26
0.292841 0.102462 0.000873442 4 92 74
0.288494 0.0517421 0.0261274 20 110 180
0.292337 0.0452973 0.0255925 143 182 69
0.33871 0.00617412 0.00271679 0 82 73
0.348779 -0.0459052 0.0162693 0 63 136
0.326008 -0.167006 0.0871223 144 0 18
0.322455 -0.186657 0.098499 36 46 15
0.445801 -0.2083 0.002631 178 193 190
0.316758 0.0465359 0.00303468 4 75 60
0.325948 0.0290645 0.00264483 0 88 77
0.330402 0.0192343 0.0030383 0 87 74
0.342571 -0.00352152 0.00235893 0 78 73
0.340772 -0.0165074 0.00945046 0 46 104
0.359863 -0.0690925 0.0156044 29 34 110
0.436736 -0.195403 0.00385797 160 178 174
0.320956 0.0363777 0.00256659 13 90 73
0.342967 -0.0367485 0.0151222 0 55 122
0.356109 -0.0633642 0.0152851 10 76 154
0.326874 -0.19072 0.0951906 76 87 21
0.432871 -0.18821 0.00306565 147 172 169
0.330771 0.0135693 0.00274985 0 88 77
0.337798 -0.0214599 0.0118532 0 49 108
