ply
format ascii 1.0
comment Created by Open3D
element vertex 1197
property double x
property double y
property double z
property uchar red
property uchar green
property uchar blue
end_header
0.324026 -0.0890125 0.00928268 0 120 112
0.369102 -0.0808548 0.0340867 62 210 169
0.37479 -0.079592 0.037103 46 218 133
0.406996 -0.0397237 0.0382713 41 208 131
0.409195 -0.0325961 0.036209 30 195 115
0.446167 0.0260804 0.0312726 139 205 89
0.449807 0.0325406 0.0304543 79 236 146
0.50099 0.146175 0.00786231 80 203 99
0.553912 0.235337 -0.00171879 0 127 114
0.572231 0.263767 -0.00385218 0 128 112
0.57714 0.269319 -0.00341869 0 126 114
0.610162 0.314371 -0.00425053 0 135 121
0.226863 -0.2129 0.00499169 0 143 130
0.236585 -0.196554 0.00324135 0 137 127
0.246556 -0.183887 0.00344894 0 138 130
0.252264 -0.175868 0.00319204 0 145 135
0.26207 -0.159404 0.00143788 0 147 140
0.284285 -0.134905 0.00371995 0 149 142
0.291107 -0.12532 0.0034129 0 147 138
0.305136 -0.104265 0.00212508 0 139 129
0.312318 -0.0968604 0.00311464 0 137 127
0.318684 -0.0932867 0.00545366 0 134 125
0.402938 -0.0541365 0.0403885 52 210 129
0.446532 0.0165163 0.0338316 55 203 129
0.49966 0.139509 0.00781031 94 242 145
0.562071 0.243315 -0.00287545 0 128 112
0.565441 0.24805 -0.00302715 0 128 115
0.568812 0.252786 -0.00317885 0 128 112
0.586051 0.275665 -0.00329836 0 134 118
0.59092 0.281164 -0.00286113 0 127 116
0.597269 0.287399 -0.00183415 0 130 116
0.610324 0.307084 -0.00307809 0 135 122
0.235257 -0.205958 0.00446537 0 141 130
0.270844 -0.154616 0.00220532 0 148 141
0.278116 -0.147079 0.00319467 0 146 139
0.283442 -0.140936 0.00361328 0 147 141
0.29102 -0.131627 0.00393048 0 146 137
0.300826 -0.11517 0.00217251 0 144 135
0.304233 -0.110383 0.00201918 0 146 134
0.33594 -0.0886126 0.0117835 0 116 110
0.344346 -0.086182 0.0160134 0 111 103
0.35341 -0.0841676 0.020872 0 105 95
0.36705 -0.0824231 0.0288163 0 102 94
0.384042 -0.0786491 0.0379263 159 207 106
0.409058 -0.0475199 0.0387753 52 234 151
0.41579 -0.0327014 0.035839 17 195 114
0.456866 0.055834 0.0188488 0 187 114
0.491789 0.126344 0.00674383 0 100 68
0.496726 0.13194 0.00717994 92 190 107
0.510331 0.159097 0.00261766 8 186 82
0.536095 0.204678 -0.00315024 0 127 116
0.560954 0.235585 -0.00229413 0 129 112
0.578062 0.262304 -0.00438078 0 128 115
0.584062 0.269394 -0.00399253 0 128 116
0.606047 0.293584 -0.00169044 0 131 117
0.610142 0.300677 -0.00253305 0 132 119
0.228597 -0.221493 0.00528462 0 144 134
0.232847 -0.216858 0.00575355 0 141 131
0.241643 -0.200488 0.00337691 0 138 127
0.245353 -0.193938 0.00254965 0 136 129
0.262408 -0.169974 0.00178201 0 146 138
0.298082 -0.126537 0.00347768 0 146 136
0.311269 -0.105333 0.00156359 0 142 131
0.331772 -0.0912355 0.00790359 0 125 116
0.374388 -0.082171 0.0310751 0 101 93
0.402661 -0.0625035 0.0397063 242 190 32
0.44664 0.00731286 0.0337653 105 207 136
0.451431 0.0127076 0.0342099 66 219 131
0.558055 0.224032 -0.000960776 0 127 114
0.578004 0.256072 -0.0038394 0 127 115
0.594405 0.276443 -0.0032571 0 128 118
0.60442 0.286503 -0.00172713 0 131 120
0.225658 -0.230448 0.00528577 0 144 131
0.23893 -0.213135 0.0053506 0 138 126
0.255641 -0.185652 0.00261189 0 143 134
0.260986 -0.179476 0.00303346 0 144 136
0.269561 -0.164759 0.00132317 0 144 136
0.277158 -0.155419 0.0016434 0 146 139
0.286305 -0.146569 0.00321825 0 148 141
0.291596 -0.140471 0.00364232 0 146 140
0.296874 -0.134389 0.00406694 0 146 137
0.30624 -0.119894 0.00298319 0 145 135
0.31037 -0.111422 0.00147294 0 145 135
0.320884 -0.0993182 0.00232406 0 140 127
0.327202 -0.0957789 0.00468844 0 135 122
0.380967 -0.0816152 0.0327289 2 118 84
0.40943 -0.0563001 0.0387318 85 224 144
0.457448 0.0311827 0.0266378 72 209 110
0.457856 0.0477678 0.0186733 43 191 97
0.497491 0.126141 0.00563224 0 95 77
0.54412 0.203666 -0.00242613 0 130 116
0.549018 0.209214 -0.00198441 0 129 115
0.563907 0.2288 -0.00199239 0 129 115
0.569051 0.237362 -0.0028861 0 129 115
0.574616 0.245181 -0.00313657 0 126 114
0.585355 0.261605 -0.00428211 0 129 114
0.592424 0.270202 -0.00393808 0 131 118
0.602436 0.280267 -0.00240217 0 131 120
0.613875 0.295006 -0.00225487 0 132 118
0.617258 0.303761 -0.00439366 0 135 122
0.237966 -0.220633 0.00593659 0 143 130
0.2464 -0.206118 0.00422874 0 137 125
0.252933 -0.192945 0.00194235 0 140 131
0.26925 -0.172682 0.0025362 0 145 137
0.27635 -0.161375 0.00155254 0 146 138
0.305015 -0.127756 0.0035829 0 148 138
0.317369 -0.106403 0.00103448 0 142 129
0.36524 -0.0844115 0.0214597 0 101 93
0.391687 -0.0792076 0.0362081 45 227 144
0.401715 -0.0704431 0.0384131 63 245 160
0.452158 0.00309437 0.0348145 95 246 162
0.465961 0.0864002 0.00231584 0 137 116
0.513873 0.147062 0.00347994 0 186 103
0.516951 0.158044 2.08424e-05 0 128 76
0.560608 0.218053 -0.00128003 0 129 115
0.611499 0.285564 -0.00157828 0 131 121
0.225472 -0.240327 0.00505499 0 147 134
0.236173 -0.227948 0.00590545 0 146 132
0.251897 -0.20054 0.00253354 0 136 128
0.258656 -0.191044 0.00222933 0 144 134
0.283103 -0.158023 0.00179503 0 147 141
0.287264 -0.153505 0.00227378 0 147 139
0.310883 -0.124306 0.00320887 0 146 137
0.313856 -0.117471 0.00174299 0 146 137
0.338737 -0.0931408 0.00595144 0 128 118
0.353282 -0.0873183 0.0126233 0 108 100
0.359038 -0.0858735 0.0156944 0 104 95
0.450777 -0.00480519 0.0355429 63 217 119
0.457922 0.0238347 0.0258967 45 230 143
0.458276 0.0402753 0.0178882 0 186 108
0.472465 0.0907693 0.00193059 0 142 121
0.513027 0.13979 0.00410116 31 214 119
0.541173 0.196609 -0.00582422 0 131 119
0.568371 0.222866 -0.001054 0 129 116
0.588149 0.254641 -0.00394232 0 128 118
0.595171 0.26318 -0.00359235 0 133 122
0.600699 0.270946 -0.00384113 0 131 118
0.609524 0.27936 -0.00224021 0 132 121
0.619839 0.29651 -0.00403658 0 132 118
0.2344 -0.235226 0.00588116 0 145 132
0.248653 -0.216526 0.00590764 0 137 126
0.251442 -0.209955 0.00444612 0 137 125
0.271086 -0.179703 0.00222606 0 144 136
0.278939 -0.168668 0.00187256 0 146 138
0.293964 -0.15021 0.00253227 0 148 141
0.301104 -0.142829 0.00354686 0 148 137
0.306334 -0.136805 0.00397941 0 147 137
0.320075 -0.112196 0.000689043 0 145 135
0.324176 -0.107759 0.00117242 0 144 134
0.329386 -0.101765 0.00160591 0 141 128
0.346643 -0.0907743 0.00750888 0 116 110
0.385494 -0.0825883 0.0291393 0 106 92
0.398708 -0.0772786 0.0352243 155 222 128
0.426452 -0.0462513 0.0379834 12 198 124
0.448397 -0.0140916 0.0363277 65 202 110
0.509514 0.130114 0.00418607 86 218 159
0.519599 0.149587 0.00106026 172 203 83
0.55082 0.198757 -0.00301687 0 123 115
0.574161 0.227576 -0.00206351 0 128 115
0.57816 0.234521 -0.00291152 0 127 114
0.616317 0.281504 -0.00128901 0 134 122
0.619999 0.289329 -0.00279069 0 131 121
0.225083 -0.251768 0.00553423 0 146 132
0.241302 -0.231626 0.00614404 0 144 131
0.245491 -0.227062 0.00662535 0 140 129
0.256903 -0.204414 0.00276222 0 138 126
0.259731 -0.197794 0.00129514 0 143 134
0.266157 -0.190088 0.00167579 0 144 134
0.27033 -0.185547 0.00215785 0 144 136
0.278965 -0.174738 0.00243913 0 144 137
0.284877 -0.165108 0.00150311 0 148 140
0.314403 -0.130237 0.0035237 0 145 134
0.31846 -0.121891 0.00200132 0 145 134
0.335521 -0.100565 0.0025732 0 141 128
0.414019 -0.0656754 0.0372246 165 243 145
0.419816 -0.0588532 0.0376336 28 211 137
0.440817 -0.0346371 0.039368 101 182 105
0.457752 0.00106416 0.0325766 73 231 132
0.546925 0.192502 -0.00493223 97 192 165
0.590931 0.247719 -0.0035634 0 130 116
0.610348 0.272355 -0.00309752 0 130 119
0.225119 -0.259123 0.00678563 0 145 131
0.232264 -0.246444 0.0051204 0 146 132
0.251494 -0.223385 0.0062704 0 139 127
0.255089 -0.217014 0.00543674 0 137 127
0.257862 -0.210477 0.00396824 0 137 125
0.275975 -0.183707 0.00248116 0 143 135
0.284891 -0.17118 0.00207986 0 144 136
0.293024 -0.158433 0.00104201 0 149 144
0.313222 -0.137973 0.00416388 0 150 140
0.324641 -0.116649 0.000962589 0 142 131
0.330206 -0.10883 0.000712119 0 144 134
0.396384 -0.0805269 0.0306534 24 195 132
0.43893 -0.041868 0.0394878 12 167 100
0.449714 -0.0280362 0.0396742 170 190 74
0.45252 -0.0214525 0.0382042 48 215 128
0.522372 0.144015 0.000796697 17 192 105
0.589775 0.24004 -0.00290886 0 130 114
0.600724 0.255425 -0.00340169 0 130 116
0.606199 0.263117 -0.0036481 0 131 118
0.618564 0.275211 -0.00151735 0 132 118
0.62292 0.281331 -0.0017134 0 132 119
0.239167 -0.242816 0.00540058 0 147 136
0.244457 -0.236701 0.00583626 0 147 133
0.248629 -0.232156 0.00632223 0 141 129
0.263582 -0.203243 0.00160663 0 142 130
0.281903 -0.180136 0.00212955 0 147 138
0.292231 -0.164307 0.000990935 0 146 140
0.298575 -0.15671 0.00137915 0 147 140
0.310535 -0.145174 0.00353588 0 148 137
0.323801 -0.126535 0.00293881 0 145 136
0.344421 -0.0988792 0.00268446 0 137 125
0.409669 -0.0756955 0.0347835 95 210 127
0.44909 -0.0361121 0.0410943 74 217 129
0.56008 0.19623 -0.00297954 0 132 118
0.598451 0.246194 -0.00268535 0 131 119
0.612989 0.265302 -0.00266591 0 133 121
0.231457 -0.261017 0.00702574 0 146 134
0.234996 -0.254731 0.00619077 0 146 135
0.259019 -0.222292 0.00578521 0 141 130
0.263973 -0.212703 0.00421087 0 141 132
0.269838 -0.197891 0.000568432 0 145 132
0.277021 -0.190426 0.00159647 0 144 134
0.287807 -0.176586 0.00178675 0 144 136
0.291451 -0.170152 0.000947008 0 148 140
0.31931 -0.138893 0.00374728 0 148 136
0.323367 -0.134508 0.00424038 0 147 135
0.331041 -0.119782 0.00186787 0 144 133
0.35157 -0.0961955 0.00364668 0 135 123
0.443566 -0.0471076 0.0407234 45 195 124
0.458377 -0.0170973 0.0353269 125 229 130
0.554473 0.186268 -0.00413444 50 152 142
0.596908 0.23932 -0.00266593 0 129 116
0.60452 0.250015 -0.00300854 0 127 116
0.61972 0.267428 -0.00166561 0 132 118
0.625828 0.273382 -0.000589121 0 131 117
0.228467 -0.271254 0.00777635 0 148 133
0.243212 -0.247913 0.00575745 0 149 138
0.250671 -0.238745 0.00609935 0 142 131
0.255068 -0.232565 0.0059014 0 142 130
0.269367 -0.207229 0.00254731 0 144 133
0.27548 -0.196017 0.000916933 0 145 135
0.329129 -0.131129 0.00392325 0 147 135
0.337894 -0.114879 0.00149586 0 145 134
0.343399 -0.107144 0.0012481 0 142 132
0.406346 -0.0803379 0.0302633 32 210 153
0.458157 -0.0298346 0.0394509 129 249 162
0.458696 -0.0238312 0.0367162 95 217 120
0.467979 0.0521603 0.00377235 0 134 110
0.658989 -0.00207484 0.161871 111 168 158
0.561114 0.189578 -0.00380773 0 132 119
0.595378 0.232475 -0.0026394 0 129 116
0.603346 0.242359 -0.00232042 0 129 118
0.610926 0.25301 -0.00266161 0 131 116
0.6167 0.259811 -0.00224386 0 132 117
0.238643 -0.262972 0.00794588 0 143 132
0.243244 -0.2552 0.00705927 0 151 140
0.261017 -0.228919 0.00557974 0 143 130
0.267861 -0.217994 0.00459213 0 146 135
0.294033 -0.177295 0.00137549 0 144 136
0.299082 -0.167584 -0.000210876 0 147 140
0.304281 -0.161588 0.000234688 0 144 138
0.33522 -0.125968 0.0029195 0 146 134
0.44355 -0.0575063 0.0415352 145 200 108
0.448189 -0.0522978 0.042006 52 207 127
0.452178 -0.0466926 0.0418264 9 194 107
0.456167 -0.0410874 0.0416469 115 249 164
0.460615 0.00572813 0.0203804 0 170 102
0.663724 0.00583672 0.159382 40 159 146
0.570305 0.195181 -0.00290464 0 129 116
0.603269 0.236262 -0.00167007 0 128 116
0.609739 0.245354 -0.0019613 0 130 114
0.632666 0.272333 -0.000275004 0 133 118
0.226283 -0.283728 0.00777837 0 144 131
0.230651 -0.277591 0.00758178 0 143 131
0.25382 -0.243731 0.00585747 0 145 134
0.258194 -0.237585 0.00566061 0 142 130
0.275694 -0.207774 0.00214701 0 146 135
0.278466 -0.201268 0.000659248 0 145 134
0.286985 -0.190603 0.000957302 0 143 135
0.293285 -0.183057 0.00135523 0 146 138
0.313843 -0.155477 0.00111141 0 147 140
0.320854 -0.148239 0.00215886 0 148 141
0.330768 -0.138226 0.00375707 0 148 137
0.341296 -0.120822 0.00192024 0 146 134
0.34895 -0.110067 0.00157574 0 142 130
0.354041 -0.10422 0.00202809 0 140 129
0.365922 -0.0953604 0.00558222 0 130 118
0.419028 -0.0795013 0.0338589 74 236 153
0.659475 -0.00802714 0.16206 106 186 178
0.561499 0.180743 -0.00390202 18 154 139
0.597056 0.224174 -0.00209498 0 131 117
0.622886 0.256548 -0.00121307 0 133 119
0.628939 0.262443 -0.000122589 0 131 119
0.23753 -0.273914 0.00791906 0 143 132
0.247098 -0.261773 0.00817181 0 148 136
0.250579 -0.255579 0.00733172 0 146 134
0.267139 -0.231008 0.0059029 0 143 129
0.270662 -0.224755 0.00506092 0 146 134
0.275024 -0.218626 0.0048646 0 146 135
0.29975 -0.176068 -0.000348765 0 149 140
0.32812 -0.145326 0.0031582 0 149 138
0.337574 -0.133345 0.00341613 0 149 136
0.348084 -0.115973 0.00157623 0 143 130
0.414164 -0.0830588 0.0300392 61 145 111
0.446217 -0.065382 0.0429483 226 178 69
0.452156 -0.0570375 0.042681 33 212 124
0.460914 -0.0382171 0.0388697 129 251 154
0.462203 -0.0285896 0.0347112 175 228 109
0.568072 0.184004 -0.00354134 0 134 119
0.572813 0.189362 -0.00307131 0 130 117
0.610631 0.234681 -0.000672957 0 133 121
0.614908 0.240691 -0.000865491 0 129 116
0.620255 0.248204 -0.00110616 0 132 118
0.635173 0.265256 0.000272661 0 133 117
0.244373 -0.27027 0.00826945 0 147 136
0.263256 -0.241138 0.00604886 0 140 127
0.280345 -0.213227 0.00322365 0 144 133
0.283081 -0.206784 0.00172986 0 144 133
0.286936 -0.198766 0.000185605 0 144 133
0.294312 -0.189703 0.000539017 0 147 136
0.306672 -0.171036 -0.000702704 0 148 140
0.312926 -0.163549 -0.000298793 0 146 138
0.33676 -0.139161 0.00342586 0 149 136
0.345436 -0.126971 0.00303538 0 146 133
0.355561 -0.111444 0.00189429 0 142 129
0.364579 -0.101373 0.00285908 0 135 123
0.426524 -0.0819367 0.035709 39 201 116
0.458609 -0.0511561 0.0418037 189 217 111
0.499907 0.0861704 -0.0018612 0 140 120
0.565998 0.175133 -0.0027799 0 136 127
0.599808 0.217437 -0.00156026 0 131 117
0.605534 0.224183 -0.00113266 0 133 118
0.629004 0.253259 -0.000132938 0 134 118
0.633599 0.258416 0.000345568 0 133 119
0.237548 -0.283219 0.00787212 0 144 131
0.251182 -0.266657 0.00863304 0 145 134
0.260258 -0.25131 0.00684995 0 141 129
0.277814 -0.225346 0.00537251 0 145 134
0.281323 -0.219118 0.00452729 0 145 135
0.305912 -0.176788 -0.000703056 0 146 138
0.31947 -0.160331 6.12115e-05 0 147 140
0.344267 -0.13457 0.00375609 0 150 137
0.35218 -0.122155 0.00271262 0 144 131
0.464804 -0.013203 0.0237601 17 177 83
0.462795 -0.000459369 0.0156031 0 103 77
0.477766 0.0439238 0.00255834 0 136 116
0.50677 0.092459 -0.00287076 0 139 122
0.660097 -0.0254722 0.166858 133 197 187
0.566527 0.168639 -0.00143676 35 167 153
0.617543 0.233833 -0.000296526 0 130 116
0.62179 0.239801 -0.000487709 0 134 120
0.6271 0.247261 -0.000726687 0 134 121
0.246537 -0.276532 0.0081453 0 144 134
0.258383 -0.259888 0.00761212 0 146 134
0.276102 -0.232404 0.00543623 0 145 134
0.28743 -0.213897 0.00354789 0 145 134
0.289335 -0.207339 0.00139458 0 145 134
0.295349 -0.196299 -0.000254578 0 146 137
0.301892 -0.187106 -0.000549059 0 147 138
0.325655 -0.158895 0.00113823 0 143 136
0.332584 -0.151748 0.00220474 0 147 140
0.337658 -0.145914 0.00266564 0 146 139
0.34346 -0.140349 0.00378285 0 148 137
0.352076 -0.128244 0.00339508 0 148 137
0.358537 -0.119165 0.00310425 0 142 129
0.379251 -0.0965327 0.00561799 0 126 116
0.437942 -0.0826656 0.0395044 154 175 97
0.442888 -0.0795985 0.0413494 56 179 101
0.456296 -0.0659365 0.0435027 111 245 160
0.483572 0.0461618 0.00299022 0 138 119
0.662682 0.00143187 0.152757 0 138 122
0.571746 0.173935 -0.00304607 0 134 121
0.605055 0.21297 -0.000409988 0 131 119
0.613908 0.224115 -0.000119293 0 133 118
0.640326 0.25735 0.000759283 0 134 118
0.257618 -0.266889 0.00833592 0 147 133
0.269868 -0.247093 0.00640223 0 144 133
0.274408 -0.239424 0.00550679 0 146 134
0.288408 -0.219753 0.00487666 0 149 138
0.308778 -0.182091 -0.000878134 0 148 138
0.31499 -0.174655 -0.000466602 0 146 138
0.321187 -0.167239 -5.43933e-05 0 147 139
0.350184 -0.135536 0.00347845 0 147 136
0.451932 -0.075225 0.0431317 41 209 125
0.466038 -0.0399075 0.0342031 76 247 143
0.467577 -0.0325794 0.0313693 14 203 106
0.662039 -0.0176325 0.160844 0 144 130
0.577802 0.177824 -0.00331078 0 133 121
0.611355 0.215928 1.69821e-05 0 133 118
0.62122 0.228497 0.000264103 0 132 118
0.625437 0.234423 7.42721e-05 0 135 121
0.629305 0.241149 -0.000790947 0 132 118
0.648416 0.255086 0.00526028 0 134 119
0.247645 -0.284233 0.00809957 0 146 133
0.256011 -0.273766 0.00841608 0 148 135
0.265636 -0.260243 0.00798288 0 142 126
0.287517 -0.226922 0.00561191 0 146 136
0.294474 -0.214569 0.0039126 0 146 135
0.296361 -0.208053 0.00174851 0 146 135
0.299082 -0.201651 0.000239845 0 147 136
0.349382 -0.141286 0.00352045 0 149 138
0.357605 -0.13102 0.00384338 0 147 136
0.361883 -0.125009 0.00365085 0 143 131
0.378623 -0.102778 0.00359047 0 127 117
0.437058 -0.0902554 0.0383861 32 95 66
0.443648 -0.0861496 0.0408617 47 50 35
0.449536 -0.0817428 0.0426759 95 220 150
0.465313 -0.0518434 0.0378074 61 229 110
0.490821 0.0471363 0.00269895 0 137 121
0.504092 0.0722247 -0.00136368 0 140 123
0.508949 0.0829157 -0.00366154 0 139 124
0.512725 0.0895098 -0.00452455 0 140 123
0.662508 -0.0118673 0.156456 30 153 142
0.570867 0.160894 -0.0015969 47 167 145
0.574258 0.168236 -0.00313572 0 136 123
0.638977 0.247573 0.000188958 0 134 118
0.26402 -0.267121 0.00807117 0 147 132
0.271703 -0.255041 0.00703036 0 143 128
0.281548 -0.239922 0.00589223 0 145 135
0.285826 -0.233911 0.0056997 0 146 134
0.294381 -0.221891 0.00531463 0 149 136
0.307321 -0.193423 -0.000827797 0 146 135
0.31459 -0.184497 -0.000459906 0 148 139
0.333817 -0.162624 0.00145468 0 148 139
0.338864 -0.156818 0.00192252 0 150 141
0.344644 -0.151269 0.00305235 0 148 136
0.612604 0.208517 2.66768e-05 0 133 121
0.618221 0.215124 0.000468824 0 134 119
0.256043 -0.282926 0.00845349 0 148 135
0.277755 -0.249854 0.0060824 0 144 133
0.303618 -0.207101 0.00143369 0 146 136
0.321101 -0.181253 -5.01565e-05 0 148 139
0.327245 -0.173904 0.000370292 0 148 139
0.331228 -0.16959 0.000887914 0 148 140
0.351011 -0.148208 0.00348215 0 150 138
0.356004 -0.142476 0.00395434 0 148 137
0.472829 -0.0322077 0.0279671 40 212 121
0.473135 -0.0151017 0.0188933 0 170 77
0.492203 0.0411957 0.00200568 0 134 119
0.510748 0.0762316 -0.00370748 0 139 122
0.662703 -0.0348195 0.165776 76 166 158
0.663614 -0.0245595 0.160857 0 139 126
0.665358 0.00354722 0.14684 201 243 235
0.625463 0.219454 0.000886261 0 134 119
0.631026 0.229836 -0.000757996 0 135 121
0.638354 0.240133 -0.00108783 0 134 120
0.264027 -0.276294 0.00812518 0 148 133
0.272719 -0.262802 0.00703509 0 143 129
0.283564 -0.246283 0.00584809 0 145 133
0.296325 -0.228353 0.00527373 0 149 138
0.302706 -0.219388 0.00498655 0 149 136
0.305354 -0.213107 0.00346964 0 146 136
0.308859 -0.201783 -0.000182395 0 146 135
0.36443 -0.136502 0.00430499 0 144 134
0.390491 -0.105004 0.00592742 0 117 109
0.447263 -0.0943555 0.0411106 49 55 45
0.451805 -0.0892529 0.041605 44 47 34
0.467815 -0.0577991 0.0359924 212 199 52
0.469884 -0.0510509 0.0338027 0 208 116
0.47199 -0.0442522 0.0316113 0 197 111
0.473138 -0.0387999 0.0294631 31 210 122
0.508981 0.0678808 -0.0029 0 139 122
0.576854 0.156846 -0.00246061 0 137 128
0.580646 0.163455 -0.00333018 0 134 121
0.58445 0.170079 -0.00420025 0 134 121
0.613855 0.201156 6.71275e-05 0 135 123
0.618401 0.206263 0.000561388 0 133 118
0.630909 0.223838 -1.61317e-06 0 132 120
0.653367 0.248992 0.0024819 0 135 122
0.279806 -0.256144 0.00605215 0 146 133
0.29041 -0.241244 0.00557487 0 149 138
0.294652 -0.235285 0.00538396 0 145 136
0.314598 -0.198319 -0.000419359 0 147 136
0.318881 -0.1923 -0.000612164 0 147 136
0.327917 -0.182159 0.000382704 0 148 139
0.331886 -0.177859 0.000904887 0 147 138
0.335846 -0.173572 0.00142744 0 148 140
0.34086 -0.167804 0.00190253 0 148 140
0.345863 -0.162053 0.00237816 0 149 141
0.350853 -0.156318 0.00285437 0 149 142
0.457836 -0.0851817 0.0414881 194 208 176
0.478046 -0.021026 0.0209563 15 190 103
0.476045 0.00298177 0.00632981 0 128 104
0.477929 0.0107371 0.00344185 0 129 106
0.504607 0.0520525 0.00013876 0 139 124
0.50882 0.0605266 -0.00145248 0 139 124
0.659651 -0.0468252 0.166956 132 192 181
0.624213 0.209889 0.000361723 0 134 121
0.639463 0.232594 -0.00102551 0 134 121
0.648775 0.241846 0.000657773 0 133 121
0.272706 -0.271962 0.00711701 0 146 131
0.308858 -0.219892 0.00478713 0 146 136
0.313084 -0.208857 0.00178602 0 149 138
0.32536 -0.189061 -0.000171918 0 149 141
0.362132 -0.147587 0.00379471 0 148 137
0.377973 -0.129152 0.0051899 0 141 130
0.388472 -0.114401 0.00471735 0 121 112
0.44708 -0.102137 0.0407291 56 62 52
0.47847 -0.0363693 0.0273699 5 195 110
0.479662 -0.0308723 0.0252082 0 191 106
0.478922 -0.00387791 0.00978162 0 128 104
0.502928 0.0438688 0.000971176 0 138 124
0.514028 0.0709327 -0.00585285 0 139 122
0.579776 0.150569 -0.00178491 0 134 124
0.613034 0.190928 0.000231762 0 131 119
0.637943 0.225927 -0.000889373 0 136 120
0.645208 0.236135 -0.00121637 0 134 122
0.267791 -0.284694 0.00809516 0 143 129
0.304013 -0.231256 0.00505546 0 149 136
0.313759 -0.216292 0.00391219 0 146 136
0.318273 -0.203592 0.000185752 0 147 136
0.322527 -0.197615 -5.70059e-06 0 147 138
0.333632 -0.184555 0.000903806 0 148 140
0.368724 -0.142876 0.0035522 0 147 136
0.373647 -0.13723 0.00403526 0 143 133
0.452809 -0.0997437 0.041342 52 52 44
0.457936 -0.0912689 0.0404066 119 108 88
0.473346 -0.0556321 0.0319619 4 207 122
0.477411 -0.0461052 0.0296649 5 200 113
0.482546 -0.0134634 0.0153408 57 165 80
0.483175 0.00649119 0.00474274 0 128 105
0.658222 -0.0552339 0.167389 101 192 186
0.579517 0.139316 0.00181571 0 136 124
0.5876 0.160844 -0.00418532 0 136 123
0.591788 0.166728 -0.0043738 0 134 121
0.620248 0.195273 0.000687101 0 136 120
0.624381 0.201081 0.000501056 0 135 120
0.631615 0.211245 0.000175478 0 135 120
0.636435 0.219289 -0.000746125 0 137 123
0.657052 0.244442 0.000439913 0 135 119
0.281332 -0.26767 0.00613439 0 147 136
0.288907 -0.255758 0.00508688 0 146 134
0.298383 -0.242444 0.00466037 0 149 136
0.30236 -0.238124 0.00518794 0 151 138
0.310771 -0.226306 0.00480936 0 149 139
0.342899 -0.178627 0.00195011 0 149 141
0.347869 -0.172913 0.00243304 0 151 143
0.353134 -0.165516 0.00219609 0 150 141
0.399671 -0.114082 0.00787385 0 123 112
0.407915 -0.110109 0.0117423 0 120 109
0.447213 -0.108172 0.0396499 71 79 76
0.465893 -0.0768515 0.0359828 64 219 101
0.485486 -0.0201463 0.0188496 67 179 88
0.502733 0.0345314 0.00111538 0 132 118
0.515821 0.0643376 -0.00583294 0 139 125
0.671176 -0.0370495 0.165233 42 155 138
0.582263 0.145007 -0.0017576 0 132 120
0.585586 0.152214 -0.00332035 0 134 121
0.598893 0.168374 -0.0025061 0 134 121
0.647323 0.230078 -0.00115301 0 137 124
0.27747 -0.278896 0.00708247 0 148 137
0.288145 -0.262632 0.00589351 0 146 134
0.295703 -0.250746 0.00484482 0 150 137
0.316451 -0.222859 0.00461945 0 151 137
0.32142 -0.212081 0.0022703 0 146 136
0.326176 -0.202868 0.000639207 0 149 139
0.331455 -0.195449 0.000401581 0 149 140
0.369596 -0.149453 0.00293595 0 149 138
0.386029 -0.131427 0.00503037 0 128 119
0.453597 -0.106101 0.0409573 54 55 49
0.483684 -0.0423111 0.0275585 0 202 117
0.487378 -0.0105413 0.0125134 0 134 93
0.511975 0.0455354 -0.000638384 0 137 121
0.515621 0.0519232 -0.00151096 0 138 122
0.621112 0.188754 0.000117558 0 135 122
0.637574 0.211884 -0.000623376 0 135 120
0.644776 0.222003 -0.000947534 0 137 121
0.654036 0.235013 -0.00136431 0 132 118
0.308751 -0.236939 0.00432908 0 148 136
0.338906 -0.19078 0.000840512 0 148 139
0.363189 -0.16045 0.00187886 0 149 138
0.395634 -0.126228 0.00681251 0 121 115
0.445723 -0.115202 0.0379489 85 91 84
0.461459 -0.0956174 0.0386614 84 62 52
0.463374 -0.0891385 0.0364439 174 231 195
0.471205 -0.0705586 0.0318288 111 222 123
0.479113 -0.0556593 0.0293415 1 203 111
0.48888 -0.0356219 0.0253497 144 199 87
0.490083 -0.0301433 0.0231643 0 183 99
0.490268 -0.0172544 0.0160515 0 170 84
0.510314 0.0374299 0.000229988 0 136 122
0.66739 -0.0424175 0.162245 56 153 142
0.596737 0.157597 -0.00294942 0 137 123
0.635067 0.203875 -0.000411969 0 137 122
0.643274 0.215407 -0.000781354 0 137 121
0.661027 0.239089 -0.000869956 0 137 119
0.279609 -0.284919 0.00714475 0 148 133
0.286046 -0.274614 0.00614265 0 148 135
0.307119 -0.243746 0.00448182 0 149 136
0.322777 -0.221745 0.00377706 0 149 136
0.346313 -0.186156 0.00129296 0 149 139
0.352006 -0.180677 0.00246149 0 151 142
0.370479 -0.155981 0.00234239 0 152 140
0.376411 -0.148906 0.00278778 0 145 133
0.405504 -0.123147 0.0100268 0 120 113
0.454397 -0.112409 0.0405953 62 58 51
0.466177 -0.0832567 0.0329414 32 235 133
0.509713 0.0308309 0.00106223 0 130 113
0.594326 0.149717 -0.00274614 0 135 122
0.628487 0.190156 -9.49148e-06 0 134 119
0.292816 -0.269602 0.0059269 0 149 136
0.299261 -0.25929 0.0049225 0 149 135
0.304465 -0.251977 0.00468825 0 148 136
0.314874 -0.237352 0.00421976 0 146 136
0.319037 -0.231502 0.00403236 0 149 139
0.329959 -0.213642 0.0021122 0 151 137
0.335447 -0.204675 0.00115091 0 148 136
0.358591 -0.175927 0.00225209 0 152 143
0.363795 -0.168615 0.00201785 0 152 140
0.452088 -0.118726 0.0401877 63 66 53
0.460658 -0.106684 0.039802 102 73 66
0.477784 -0.0650225 0.0290309 0 202 118
0.48557 -0.0540822 0.0286805 18 208 120
0.488868 -0.0481913 0.0278177 0 183 106
0.491589 -0.0418543 0.0262666 79 190 93
0.495619 -0.0148214 0.0139421 18 189 108
0.501939 0.0141714 0.00222884 0 120 105
0.508595 0.0247811 0.00121495 0 124 107
0.517844 0.0402898 -0.0006299 0 136 120
0.660438 -0.0547721 0.160813 47 155 144
0.582336 0.123363 0.000753166 0 134 122
0.591933 0.141876 -0.00253603 0 131 119
0.604044 0.156379 -0.00165256 0 137 123
0.62297 0.177942 0.000352838 0 130 117
0.635208 0.195137 -0.000197995 0 137 123
0.644387 0.208034 -0.000611119 0 137 123
0.653935 0.223965 -0.00246949 0 134 121
0.297684 -0.265995 0.00508819 0 148 135
0.343127 -0.198383 0.000894147 0 147 136
0.351936 -0.188515 0.00193015 0 152 142
0.370336 -0.163916 0.00181821 0 150 139
0.402559 -0.133691 0.00896262 0 124 118
0.407693 -0.13024 0.0108803 0 119 113
0.472102 -0.0773686 0.0294682 6 217 125
0.483139 -0.060606 0.0282552 36 226 138
0.496178 -0.0347613 0.023371 0 185 100
0.498217 -0.0256243 0.019698 0 181 91
0.657445 -0.0615253 0.160792 0 152 137
0.662348 -0.0496193 0.157706 75 158 148
0.587327 0.128427 -0.000786075 0 133 121
0.601647 0.148548 -0.00143061 0 136 123
0.628675 0.181506 0.000217833 0 132 118
0.640531 0.199419 -0.00103203 0 136 123
0.650714 0.213728 -0.00149038 0 137 121
0.664971 0.233759 -0.00213207 0 136 119
0.2887 -0.28435 0.00631313 0 147 134
0.293867 -0.27709 0.00608058 0 150 136
0.306476 -0.258123 0.00479493 0 150 137
0.31372 -0.247945 0.00446887 0 149 135
0.329243 -0.226134 0.00377019 0 149 138
0.338037 -0.211275 0.00193807 0 151 137
0.342188 -0.205442 0.00175121 0 149 136
0.357469 -0.185223 0.0017816 0 151 142
0.376847 -0.159247 0.00162757 0 150 139
0.394202 -0.143622 0.0058736 0 126 118
0.466463 -0.0896432 0.0299114 33 211 130
0.500778 -0.0189035 0.0154399 0 164 88
0.517125 0.0290922 0.00034093 0 129 112
0.582362 0.115749 0.000277294 0 138 128
0.610249 0.153681 -0.000259713 0 136 123
0.621809 0.168672 -6.18704e-05 0 133 121
0.661794 0.227355 -0.00329785 0 135 121
0.303676 -0.267773 0.0057512 0 148 135
0.321417 -0.241598 0.00423263 0 150 136
0.336111 -0.219703 0.00285111 0 152 141
0.351886 -0.196291 0.00142103 0 151 141
0.365787 -0.179255 0.00223555 0 151 141
0.404086 -0.140425 0.00915285 0 126 118
0.451577 -0.129879 0.0394195 61 62 56
0.466002 -0.0971272 0.0315694 204 238 178
0.478306 -0.0735968 0.0274151 46 203 113
0.491869 -0.0545401 0.0268046 10 200 112
0.498846 -0.0409916 0.0243303 2 188 97
0.502398 -0.0310057 0.02129 16 195 107
0.511924 0.0173364 0.000698674 0 121 105
0.58835 0.122223 -0.001301 0 137 123
0.595479 0.132239 -0.00162185 0 134 121
0.601992 0.140142 -0.00119493 0 134 121
0.615979 0.157298 -0.000384308 0 137 123
0.638284 0.188637 -0.00138822 0 137 121
0.647746 0.200683 -0.00109401 0 137 123
0.313645 -0.256974 0.00470027 0 152 139
0.329078 -0.23529 0.00400565 0 150 136
0.341676 -0.216344 0.00271663 0 152 143
0.346828 -0.209105 0.00248475 0 151 137
0.350949 -0.203315 0.00229924 0 151 141
0.370526 -0.175808 0.0014181 0 152 143
0.376708 -0.167121 0.00113984 0 150 139
0.392303 -0.152684 0.00477008 0 134 127
0.465269 -0.106216 0.033977 53 60 43
0.484608 -0.0678321 0.0266083 46 235 144
0.51137 0.0108764 0.00157701 0 118 104
0.524072 0.029968 0.000283329 0 134 119
0.662524 -0.0470492 0.151453 69 168 155
0.594151 0.125942 -0.00142685 0 135 124
0.61118 0.147378 -0.000749277 0 135 122
0.635832 0.180769 -0.00113678 0 136 122
0.656048 0.209175 -0.00204672 0 133 121
0.659772 0.215653 -0.00293638 0 133 119
0.663821 0.221342 -0.00311864 0 134 120
0.299413 -0.283903 0.00691439 0 151 135
0.303689 -0.276651 0.00599797 0 150 137
0.311884 -0.265137 0.00562912 0 150 137
0.320291 -0.252082 0.00452675 0 150 136
0.336704 -0.22902 0.00378798 0 149 138
0.356463 -0.200015 0.0021747 0 149 139
0.360573 -0.194241 0.00198974 0 151 140
0.366737 -0.18558 0.0017123 0 152 141
0.451752 -0.135724 0.0384273 55 63 63
0.472954 -0.0823209 0.0237178 30 206 132
0.490893 -0.0620865 0.0258062 35 209 126
0.510836 0.00446054 0.00246604 0 117 103
0.518893 0.0182667 0.000655505 0 124 110
0.660866 -0.0556657 0.153535 125 178 170
0.625335 0.161611 -0.000515609 0 136 123
0.631382 0.170107 -0.000787781 0 133 118
0.6465 0.191348 -0.00146821 0 137 122
0.345318 -0.221351 0.00353363 0 151 141
0.378344 -0.173708 0.00132129 0 155 145
0.384187 -0.166738 0.00178419 0 152 140
0.393172 -0.159074 0.00428333 0 140 132
0.408609 -0.148542 0.0101215 0 126 119
0.416777 -0.144505 0.0141091 0 122 116
0.448397 -0.139755 0.0359142 58 63 64
0.465078 -0.113837 0.0337116 60 63 48
0.467979 -0.0911631 0.0226928 103 184 82
0.478925 -0.0782625 0.0236519 0 204 122
0.496787 -0.0581254 0.0257515 9 199 114
0.504298 -0.0450915 0.0239617 6 194 110
0.509766 -0.03245 0.0208121 44 185 88
0.511586 -0.00757389 0.00766419 0 119 100
0.517801 0.0123181 0.000851488 0 120 105
0.587496 0.107764 -0.000833655 0 138 128
0.617536 0.147492 -0.000733973 0 135 124
0.65309 0.196207 -0.00160834 0 136 121
0.657109 0.201855 -0.00178925 0 139 123
0.672182 0.223033 -0.00246765 0 134 120
0.306617 -0.282625 0.0068722 0 155 140
0.322275 -0.25815 0.0047118 0 151 137
0.326568 -0.250882 0.00379079 0 152 139
0.331675 -0.243707 0.00356094 0 153 139
0.33576 -0.237966 0.00337706 0 150 139
0.342672 -0.229491 0.00379375 0 154 143
0.354658 -0.213887 0.00398211 0 149 139
0.35899 -0.206564 0.0030593 0 153 138
0.367422 -0.193479 0.00195198 0 150 141
0.464731 -0.121082 0.0354186 76 72 65
0.467152 -0.10036 0.0251202 78 207 130
0.470855 -0.0852619 0.019131 1 50 12
0.490895 -0.0682384 0.0247794 213 231 122
0.509011 -0.0403093 0.0225083 63 193 109
0.514306 -0.0143141 0.0113528 36 151 82
0.514842 -0.0011906 0.00405053 0 118 101
0.517255 0.00591119 0.00175846 0 117 100
0.536908 0.0347624 0.000146071 0 138 124
0.613781 0.139062 -0.00113048 0 131 121
0.647622 0.184137 -0.00119802 0 138 122
0.663334 0.207451 -0.00263301 0 135 119
0.668351 0.214499 -0.00285881 0 135 121
0.313427 -0.276227 0.00598857 0 151 137
0.32155 -0.264814 0.00562297 0 152 139
0.350995 -0.223442 0.00429768 0 150 140
0.366489 -0.200438 0.00287056 0 151 141
0.374165 -0.187184 0.00106556 0 156 147
0.405358 -0.156933 0.00768881 0 127 120
0.457191 -0.137175 0.0367349 164 143 144
0.48789 -0.0742932 0.0236772 221 186 66
0.496777 -0.0642755 0.0247367 51 201 117
0.661728 -0.0521964 0.147207 0 144 133
0.625462 0.151092 -0.00148814 0 139 124
0.629469 0.156722 -0.00166851 0 137 123
0.634839 0.163033 -0.00118047 0 136 123
0.639841 0.170061 -0.00140559 0 133 121
0.645188 0.17634 -0.00091654 0 137 122
0.655176 0.190374 -0.0013661 0 142 123
0.329344 -0.257029 0.00469891 0 152 138
0.333612 -0.2498 0.00377513 0 152 137
0.341735 -0.238387 0.00340954 0 147 136
0.348607 -0.229963 0.00383189 0 152 142
0.373211 -0.194162 0.00199284 0 152 142
0.380603 -0.182544 0.000928451 0 154 145
0.412441 -0.156279 0.0104706 0 127 117
0.447789 -0.147248 0.0330249 83 93 82
0.454262 -0.143078 0.0356602 90 91 85
0.466603 -0.113425 0.027788 78 193 137
0.468396 -0.0899732 0.0152688 0 77 47
0.5053 -0.0541289 0.0231196 0 184 102
0.518296 -0.0284801 0.0181446 30 198 108
0.525158 0.0082516 0.00173887 0 120 105
0.660324 -0.062877 0.15077 120 222 212
0.660697 0.193766 -0.00143492 0 139 123
0.664363 0.200148 -0.00233158 0 138 122
0.67693 0.215343 -0.00143387 0 135 121
0.314316 -0.284989 0.00700672 0 155 141
0.322565 -0.272171 0.00590188 0 151 137
0.357891 -0.222535 0.00431184 0 152 141
0.362938 -0.215444 0.0040847 0 153 142
0.389039 -0.175085 0.000709081 0 154 146
0.418778 -0.155412 0.0125755 0 124 118
0.466881 -0.0988806 0.0170128 0 165 110
0.482944 -0.0812262 0.0192243 0 135 104
0.49618 -0.0699983 0.0230302 3 195 97
0.510555 -0.0498019 0.0223832 246 170 4
0.516304 -0.0417234 0.0221244 33 191 104
0.537075 0.0206298 0.00138215 0 130 117
0.663201 -0.0478516 0.142427 76 166 158
0.595586 0.104069 -0.00198497 0 143 132
0.65229 0.177599 -0.000869141 0 136 121
0.656261 0.183179 -0.00104788 0 138 124
0.671839 0.206296 -0.00248263 0 135 123
0.320063 -0.28006 0.00618832 0 152 137
0.329313 -0.265837 0.00503646 0 151 140
0.340611 -0.248737 0.0037924 0 153 138
0.355516 -0.22902 0.00385705 0 151 140
0.369373 -0.210776 0.0039689 0 155 145
0.380526 -0.190202 0.000524751 0 157 146
0.53152 0.00724594 0.00255508 0 120 105
0.625981 0.139968 -0.0016965 0 138 126
0.638271 0.156011 -0.00151414 0 138 124
0.642594 0.16086 -0.000973221 0 139 125
0.64656 0.166432 -0.00115169 0 136 121
0.33705 -0.258109 0.00413041 0 150 139
0.347113 -0.24397 0.00367747 0 152 138
0.376036 -0.204553 0.0031131 0 155 145
0.388938 -0.182757 0.000320028 0 157 148
0.417265 -0.16252 0.0108445 0 127 120
0.423974 -0.157984 0.0134924 0 126 119
0.455272 -0.14947 0.0334703 85 103 99
0.466902 -0.108673 0.0181975 0 188 120
0.493075 -0.0780119 0.0207068 72 209 114
0.503456 -0.0670949 0.022452 75 242 162
0.530513 -0.00095441 0.00427239 0 116 103
0.545327 0.0223049 0.00213069 0 137 121
0.663012 -0.0581136 0.145065 23 135 125
0.597866 0.0961263 -0.000234082 0 144 135
0.603403 0.105128 -0.00122074 0 144 133
0.610353 0.114893 -0.00153355 0 141 128
0.633554 0.146269 -0.00184034 0 141 127
0.669553 0.195627 -0.00272314 0 140 125
0.680342 0.207119 -0.000996375 0 134 120
0.330322 -0.273138 0.00535806 0 152 139
0.353585 -0.239232 0.00357162 0 154 139
0.368151 -0.221206 0.0043948 0 154 145
0.398735 -0.175794 0.00153946 0 154 143
0.407986 -0.170115 0.00555946 0 136 128
0.514971 -0.0551724 0.0221867 54 195 98
0.539289 0.00949388 0.0026072 0 120 107
0.639467 0.14903 -0.00116235 0 142 125
0.659861 0.175245 -0.000601428 0 137 123
0.666429 0.185694 -0.0016365 0 142 126
0.676282 0.199538 -0.00207998 0 139 122
0.325843 -0.283774 0.00575475 0 153 138
0.338021 -0.265446 0.0044653 0 153 143
0.343226 -0.256916 0.00348973 0 152 141
0.361801 -0.233251 0.00413632 0 151 142
0.365796 -0.227638 0.0039565 0 154 143
0.37454 -0.216568 0.00430427 0 153 142
0.384036 -0.200792 0.0023942 0 156 144
0.389585 -0.190562 0.000661832 0 156 144
0.425535 -0.16439 0.0138703 0 126 120
0.466978 -0.11468 0.0171943 0 149 108
0.525315 -0.0424493 0.0204992 2 190 103
0.530218 -0.0294755 0.0165719 39 190 99
0.63281 0.13658 -0.00138967 0 136 123
0.653535 0.162048 -9.84536e-05 0 135 121
0.657458 0.16756 -0.000275034 0 135 121
0.331536 -0.278892 0.00495811 0 154 137
0.336522 -0.271886 0.00473367 0 154 139
0.348904 -0.25206 0.00268982 0 152 141
0.3809 -0.21196 0.00422275 0 156 144
0.419704 -0.16958 0.00990879 0 130 121
0.463632 -0.141856 0.0287429 33 90 56
0.46571 -0.134079 0.0256763 59 216 142
0.501431 -0.0778178 0.0203522 194 207 87
0.534689 -0.0201616 0.012166 24 172 75
0.539179 -0.00171163 0.00453134 0 118 104
0.546006 0.0103102 0.00273753 0 125 110
0.59909 0.0496856 0.0219027 15 155 138
0.612986 0.106849 -0.0017637 0 145 133
0.626175 0.124166 -0.00161404 0 139 126
0.63011 0.129695 -0.00179116 0 134 124
0.650818 0.155149 -0.000493484 0 140 127
0.673706 0.189735 -0.00301011 0 140 122
0.684408 0.20113 -0.00126206 0 136 119
0.34518 -0.262832 0.00380739 0 155 140
0.372592 -0.226739 0.00406396 0 154 143
0.398955 -0.187275 0.00138705 0 158 149
0.43883 -0.166377 0.0212028 0 128 116
0.460835 -0.151205 0.0298998 124 250 190
0.466785 -0.12952 0.0214349 0 194 128
0.494531 -0.0832676 0.0157149 0 91 79
0.532284 -0.0374903 0.0184868 11 190 102
0.603551 0.0844475 0.00186579 0 145 135
0.609163 0.0959666 -0.000622382 0 149 138
0.646156 0.145522 -0.000797057 0 141 127
0.6791 0.193022 -0.00302504 0 142 124
0.337546 -0.27908 0.00511249 0 154 139
0.342503 -0.272116 0.0048894 0 157 142
0.358786 -0.24682 0.00266227 0 154 143
0.36453 -0.239957 0.00315084 0 157 145
0.378943 -0.222124 0.0039964 0 153 138
0.386862 -0.210998 0.00364 0 153 142
0.395042 -0.198295 0.00252463 0 158 146
0.418489 -0.175018 0.00744626 0 140 129
0.432662 -0.169606 0.0157738 0 128 122
0.526408 -0.0535973 0.0212669 23 205 122
0.60304 0.0746193 0.00511674 34 166 149
0.62708 0.118064 -0.00194224 0 140 127
0.651961 0.14819 -7.36274e-05 0 140 125
0.660721 0.160498 -0.000467891 0 140 125
0.674395 0.183336 -0.00332473 0 139 125
0.356469 -0.253176 0.00223772 0 153 138
0.371895 -0.233911 0.00304149 0 156 146
0.392425 -0.206271 0.0028665 0 158 146
0.465011 -0.13804 0.0205728 51 218 134
0.507593 -0.0782105 0.0186563 66 206 122
0.595042 0.0410444 0.0169674 0 143 132
0.59925 0.045751 0.0175271 33 165 148
0.609992 0.0873677 0.000564459 0 147 135
0.617961 0.100975 -0.00129226 0 147 135
0.622842 0.107833 -0.00151198 0 145 133
0.657385 0.151545 -7.05464e-05 0 136 123
0.668709 0.168662 -0.00132929 0 141 126
0.679768 0.186613 -0.00332514 0 141 126
0.338766 -0.284751 0.00476245 0 154 140
0.3437 -0.277819 0.00454038 0 155 140
0.348634 -0.270886 0.0043183 0 155 140
0.35396 -0.260997 0.00257665 0 154 138
0.378238 -0.22929 0.00298584 0 159 146
0.42939 -0.174257 0.0111972 0 134 127
0.463742 -0.146438 0.0224178 141 210 109
0.519785 -0.0688963 0.0206463 0 177 102
0.526356 -0.0596634 0.0203505 31 209 128
0.533866 -0.0491114 0.0200125 19 212 129
0.537081 -0.0433916 0.0191168 36 203 126
0.604778 0.0517278 0.0160698 35 169 158
0.629341 0.1127 -0.0015573 0 143 130
0.636154 0.122273 -0.00186395 0 138 124
0.643684 0.130447 -0.000700913 0 137 123
0.689575 0.193724 -0.00201543 0 142 124
0.364515 -0.249252 0.00158235 0 157 143
0.372199 -0.239656 0.00198941 0 158 145
0.386519 -0.221934 0.0028507 0 157 146
0.391195 -0.216565 0.00339317 0 158 146
0.422887 -0.179235 0.00648418 0 143 133
0.438637 -0.172704 0.0155631 0 133 127
0.459986 -0.157104 0.0236371 42 230 146
0.54532 -0.0312065 0.0160317 199 189 45
0.561579 0.0120368 0.00250048 0 132 118
0.610841 0.0788522 0.00178907 0 147 136
0.619706 0.0937088 -0.000115771 0 148 136
0.634835 0.116165 -0.00154964 0 144 128
0.651403 0.135845 -3.6631e-05 0 141 127
0.665251 0.154103 9.29868e-05 0 137 123
0.669753 0.161628 -0.000862542 0 139 125
0.679468 0.178877 -0.00355854 0 143 130
0.354731 -0.269669 0.00377189 0 157 143
0.362993 -0.255667 0.00189034 0 159 144
0.37066 -0.246091 0.00230011 0 159 145
0.396721 -0.211869 0.00263681 0 157 146
0.457067 -0.162989 0.0225659 160 251 215
0.559047 0.00543694 0.00212418 0 126 111
0.617485 0.0863484 0.000248779 0 147 135
0.626177 0.0985612 -0.000142442 0 149 136
0.630626 0.10601 -0.00109753 0 150 134
0.675432 0.167767 -0.00235936 0 139 124
0.685761 0.183478 -0.00357911 0 142 127
0.361489 -0.262045 0.00220525 0 157 141
0.378948 -0.238708 0.00217619 0 159 145
0.383625 -0.23333 0.00272244 0 159 145
0.402958 -0.207362 0.00260909 0 158 149
0.533848 -0.0592769 0.0194209 72 219 129
0.539445 -0.0514136 0.019169 34 202 115
0.547721 -0.0373968 0.017283 215 188 44
0.552125 -0.0240434 0.0125441 109 179 71
0.552923 -0.0181456 0.00948112 11 162 84
0.556089 -0.00533892 0.00404127 0 120 105
0.570046 0.0178537 0.00114276 0 143 129
0.599298 0.039849 0.0119345 23 159 144
0.603499 0.0445574 0.0125022 0 148 133
0.637055 0.110812 -0.00111654 0 149 133
0.640912 0.116232 -0.00129014 0 141 128
0.646091 0.122314 -0.00076643 0 135 123
0.650294 0.127025 -0.000198819 0 135 123
0.664082 0.145204 -6.26525e-05 0 136 122
0.350846 -0.283636 0.00445666 0 157 141
0.355727 -0.276777 0.00423695 0 161 146
0.360795 -0.268466 0.00325013 0 160 145
0.369023 -0.254523 0.00136242 0 161 146
0.435541 -0.177739 0.0089903 0 143 136
0.46103 -0.155028 0.0161887 0 154 119
0.463139 -0.147301 0.013059 0 135 116
0.477914 -0.111053 0.0025309 0 152 132
0.54453 -0.0472371 0.0185001 77 199 105
0.552706 -0.0309834 0.0150973 0 173 96
0.612418 0.0672113 0.00330529 0 146 133
0.671005 0.151911 -0.00084907 0 137 119
0.676444 0.160744 -0.00185255 0 138 120
0.683524 0.173075 -0.00368861 0 143 127
0.377088 -0.248623 0.00202076 0 159 144
0.392476 -0.22819 0.00208878 0 157 147
0.396376 -0.222712 0.00191328 0 157 146
0.40198 -0.216026 0.00242166 0 158 149
0.446617 -0.173511 0.0133433 0 146 137
0.454714 -0.168076 0.016782 121 216 131
0.473235 -0.12185 0.00301765 0 148 128
0.48712 -0.101153 0.00163211 0 146 129
0.522798 -0.0771689 0.0167602 90 194 97
0.533794 -0.065283 0.0185471 64 238 155
0.621458 0.0792813 0.000910043 0 148 134
0.627199 0.0873472 0.000651663 0 152 135
0.634853 0.0981018 0.000307156 0 153 137
0.638309 0.104146 -0.00060901 0 149 136
0.657544 0.127607 0.000807136 0 131 118
0.663266 0.135648 0.000549567 0 129 118
0.682087 0.166845 -0.00334006 0 141 126
0.689765 0.177634 -0.00368565 0 143 128
0.695243 0.186518 -0.00469281 0 141 126
0.375584 -0.254968 0.00235883 0 159 147
0.382397 -0.245395 0.00205218 0 160 148
0.390932 -0.234589 0.00243059 0 158 148
0.457974 -0.162916 0.0139017 0 156 127
0.485316 -0.107901 0.00199524 0 151 132
0.562088 -0.0107015 0.00540284 0 120 107
0.576375 0.0141144 0.00170955 0 143 129
0.619682 0.0714062 0.00204805 0 147 132
0.647176 0.113594 -0.00147714 0 146 131
0.672056 0.144995 -0.000309281 0 133 120
0.677458 0.153771 -0.00131498 0 140 122
0.357603 -0.284451 0.0034462 0 162 148
0.371379 -0.263912 0.00206169 0 160 146
0.388653 -0.240825 0.0020487 0 162 151
0.452472 -0.17126 0.0121726 6 161 146
0.480994 -0.116994 0.00171501 0 151 132
0.557328 -0.0369407 0.0158626 0 185 98
0.61509 0.0595929 0.00332435 0 145 137
0.636133 0.0915252 0.000848203 0 152 137
0.655148 0.118243 -7.65709e-06 0 134 122
0.697653 0.179146 -0.00268522 0 145 132
0.362959 -0.281134 0.00349102 0 160 149
0.367795 -0.274339 0.00327333 0 160 148
0.402617 -0.225411 0.00170601 0 156 145
0.40818 -0.218775 0.00222206 0 158 146
0.427925 -0.193392 0.00286621 0 159 148
0.445189 -0.177394 0.00745413 0 154 146
0.474764 -0.12876 0.00152444 0 152 135
0.540286 -0.0661942 0.0177359 98 223 135
0.551897 -0.0510597 0.0179797 87 193 95
0.561858 -0.0323445 0.0144657 0 183 98
0.568536 -0.00762353 0.00420164 0 122 111
0.583727 0.0160805 0.00198503 0 144 130
0.631088 0.0802657 0.00138623 0 148 134
0.643042 0.098241 8.17508e-05 0 151 134
0.646477 0.104248 -0.000839303 0 150 137
0.66554 0.127493 0.000601985 0 120 110
0.672164 0.1368 0.000303854 0 131 116
0.685159 0.159778 -0.00334674 0 142 126
0.694015 0.171042 -0.00297895 0 146 129
0.385648 -0.253451 0.00276333 0 161 149
0.389505 -0.248032 0.00258973 0 162 148
0.396255 -0.238548 0.00228592 0 160 149
0.461619 -0.158477 0.00702744 0 139 126
0.481033 -0.12296 0.000775185 0 153 134
0.488358 -0.113845 0.00121385 0 149 133
0.545868 -0.0624647 0.0178342 21 195 115
0.62419 0.0664144 0.00201532 0 145 134
0.628522 0.0736785 0.00105199 0 146 135
0.637417 0.0849985 0.00142001 0 150 136
0.677096 0.140751 -0.000365943 0 136 123
0.683101 0.151541 -0.00217289 0 141 125
0.69134 0.164295 -0.0033121 0 144 128
0.369754 -0.279968 0.00377998 0 162 148
0.379367 -0.266461 0.00334732 0 158 146
0.383212 -0.261058 0.00317425 0 160 146
0.403399 -0.232695 0.00226566 0 159 148
0.419492 -0.211257 0.00231158 0 160 151
0.455525 -0.170021 0.00685204 0 148 138
0.56944 -0.0217048 0.00942764 15 177 92
0.576365 -0.00140867 0.00218343 0 127 112
0.655734 -0.0436993 0.0995182 17 177 164
0.62205 0.0592592 0.00243805 0 144 133
0.644284 0.0916739 0.00066698 0 155 138
0.664428 0.118804 0.000530617 0 125 116
0.681706 0.145429 -0.00178765 0 140 124
0.376187 -0.273931 0.0030272 0 164 149
0.396342 -0.245612 0.00212003 0 163 148
0.411466 -0.225534 0.00221154 0 161 149
0.431069 -0.200332 0.00287365 0 159 150
0.481699 -0.129195 0.000594872 0 153 137
0.541043 -0.0727516 0.0156847 63 231 147
0.562323 -0.0451946 0.0162714 17 196 108
0.566823 -0.0365289 0.0145244 0 170 91
0.575328 -0.00935263 0.00410281 0 127 112
0.61952 0.0527392 0.00211378 0 148 139
0.637384 0.0778401 0.00130971 0 152 136
0.657376 0.108272 -0.00113456 0 149 134
0.674375 0.128643 0.000416982 0 126 114
0.689151 0.154089 -0.00333692 0 141 126
0.703201 0.170317 -0.00165267 0 153 134
0.394856 -0.251866 0.0025017 0 165 150
0.416626 -0.222446 0.00229604 0 161 149
0.447588 -0.181279 0.00245073 0 160 151
0.46164 -0.166208 0.00491481 0 143 134
0.489487 -0.122408 0.000564861 0 147 132
0.548065 -0.0681437 0.0165078 59 205 122
0.555919 -0.0582769 0.0169284 16 198 113
0.590746 0.0116874 0.00142633 0 145 134
0.652901 0.0990194 -0.00137123 0 154 139
0.672098 0.121319 0.000861261 0 120 110
0.681772 0.137249 -0.00112244 0 144 131
0.696507 0.15912 -0.00255976 0 143 130
0.700268 0.164404 -0.00272904 0 148 133
0.374313 -0.284883 0.00374886 0 165 150
0.384804 -0.270142 0.00327665 0 162 152
0.402925 -0.244681 0.00246102 0 161 149
0.407694 -0.23798 0.00224638 0 163 151
0.427476 -0.211352 0.00213209 0 159 149
0.471605 -0.151679 0.00169802 0 153 140
0.53696 -0.0796654 0.0119497 136 189 106
0.569119 -0.0426388 0.0159348 0 178 97
0.57354 -0.0317648 0.0126315 0 170 86
0.584496 -0.00238429 0.00282548 0 132 120
0.649166 0.0884805 -8.52555e-05 0 153 136
0.667307 0.112805 -0.000125714 0 134 118
0.690108 0.147173 -0.00270411 0 143 127
0.379748 -0.280226 0.00305642 0 166 150
0.39308 -0.261494 0.00245637 0 165 149
0.415484 -0.23234 0.00300395 0 163 152
0.439906 -0.199189 0.00268281 0 161 148
0.481607 -0.140596 0.00080587 0 155 139
0.57934 -0.021878 0.00885504 6 167 89
0.591378 0.00201169 0.00364521 0 144 129
0.622158 0.0452599 0.00225982 43 148 127
0.639501 0.0707906 0.000701221 0 152 138
0.647909 0.0826046 0.000322777 0 154 137
0.663451 0.105605 -0.00115481 0 150 138
0.696489 0.150863 -0.00186379 0 145 129
0.704789 0.159036 9.66363e-05 0 150 134
0.436448 -0.208172 0.00318023 0 163 151
0.445213 -0.194697 0.00200579 0 162 151
0.456568 -0.178742 0.00149471 0 151 140
0.488409 -0.135163 0.000841487 0 152 134
0.543527 -0.0785957 0.0123995 18 204 147
0.575785 -0.0379112 0.0140674 29 191 108
0.65252 -0.0460748 0.0886071 92 111 126
0.660395 -0.0315309 0.0859128 127 175 171
0.645364 0.0760894 1.65572e-05 0 151 138
0.660876 0.0990445 -0.00146155 0 151 138
0.682364 0.125757 -8.89181e-05 0 136 122
0.685777 0.131712 -0.00102248 0 142 130
0.689502 0.136946 -0.00119014 0 143 127
0.386603 -0.277692 0.00264577 0 167 151
0.40082 -0.257717 0.0020059 0 165 153
0.405356 -0.2525 0.00258356 0 164 152
0.451999 -0.185808 -0.000297615 0 160 148
0.463443 -0.173199 0.00153285 0 147 135
0.467865 -0.168142 0.00211569 0 148 135
0.48105 -0.149617 0.00152227 0 157 140
0.553944 -0.0726488 0.0154424 50 233 141
0.570805 -0.0501157 0.0154654 77 197 107
0.582006 -0.0285926 0.0110519 0 170 97
0.658521 -0.0390942 0.0873583 209 227 220
0.654935 0.0866029 -0.000831108 0 150 136
0.670166 0.106846 -0.000734784 0 156 140
0.67421 0.111372 -0.000134905 0 140 125
0.677923 0.116588 -0.00030202 0 132 118
0.703542 0.150271 0.00010858 0 144 126
0.392941 -0.271746 0.00192622 0 166 151
0.397486 -0.266515 0.00250547 0 165 150
0.413337 -0.245397 0.00257579 0 163 153
0.418781 -0.238902 0.00311459 0 165 153
0.474684 -0.162663 0.00216601 0 161 146
0.486888 -0.145516 0.00161673 0 153 136
0.495669 -0.132024 0.000437711 0 145 133
0.645323 0.0690159 -2.77068e-05 0 153 136
0.700655 0.144453 -0.000950593 0 146 128
0.712858 0.148904 0.00712188 0 145 127
0.387591 -0.284521 0.00330812 0 169 153
0.411134 -0.25144 0.00224844 0 164 152
0.480532 -0.158537 0.00226776 0 166 149
0.492697 -0.141445 0.00172024 0 146 135
0.564878 -0.065353 0.0157574 151 201 110
0.584195 -0.034758 0.0125308 128 177 64
0.664932 -0.0214741 0.077255 0 138 124
0.644105 0.0632342 0.000405569 0 152 135
0.661338 0.0885985 -0.00115578 0 149 136
0.665045 0.0938069 -0.00132262 0 152 139
0.690666 0.127504 -0.000904403 0 142 124
0.694361 0.132696 -0.00107071 0 142 123
0.698056 0.137888 -0.00123701 0 144 127
0.404239 -0.26407 0.00213607 0 166 155
0.408 -0.258786 0.00196679 0 164 152
0.428238 -0.232648 0.00263122 0 164 153
0.455684 -0.192936 0.000608245 0 159 147
0.471062 -0.173625 0.00149137 0 155 140
0.569792 -0.0613164 0.0151637 78 219 141
