ply
format ascii 1.0
comment Created by Open3D
element vertex 1229
property double x
property double y
property double z
property uchar red
property uchar green
property uchar blue
end_header
0.711215 -0.0756064 0.00933652 40 132 122
0.691948 -0.0405289 0.0295578 73 92 98
0.672119 -0.0351426 0.0256489 203 203 203
0.533975 0.012474 0.00653869 0 57 54
0.525949 0.0162264 0.00622189 0 61 56
0.488284 0.0370027 0.00728388 0 63 65
0.477426 0.044954 0.0091693 0 54 55
0.465393 0.0681591 0.0228425 0 71 133
0.800727 -0.114917 0.0131052 180 190 182
0.776044 -0.10673 0.00940801 66 132 128
0.717617 -0.0748822 0.0107416 65 129 132
0.707156 -0.0714407 0.0091517 40 131 125
0.70052 -0.0693406 0.00807602 37 128 122
0.624187 0.0335456 0.0593883 0 80 21
0.611585 0.0390725 0.0585901 0 81 21
0.511567 0.025497 0.00579084 0 63 59
0.502946 0.0304487 0.00619188 4 61 67
0.471953 0.0508172 0.00971024 0 61 61
0.808509 -0.115871 0.0137861 183 193 185
0.788576 -0.111253 0.00915968 170 187 176
0.698705 -0.0639023 0.0098694 42 127 123
0.695775 -0.0468504 0.0225014 109 157 156
0.686286 -0.0345691 0.0284965 116 109 120
0.629722 0.0312196 0.058202 9 87 44
0.54647 0.0115828 0.00723232 0 54 49
0.54097 0.0138884 0.00679401 0 54 52
0.531783 0.0183109 0.00652715 0 60 55
0.49491 0.0377822 0.00685403 0 67 70
0.485094 0.0434206 0.00731069 0 62 64
0.771854 -0.093868 0.0144577 69 140 130
0.76926 -0.0889703 0.0173632 123 154 153
0.755976 -0.0796362 0.0193736 100 141 140
0.738853 -0.0732092 0.0173853 80 133 127
0.731932 -0.0726422 0.0149224 88 136 132
0.724054 -0.0706729 0.0132002 243 247 246
0.714919 -0.0679819 0.0115365 53 126 120
0.706023 -0.0645767 0.0105578 69 133 126
0.697797 -0.0513318 0.0179027 66 129 126
0.677541 -0.0311776 0.0258072 122 143 139
0.65802 -0.0293373 0.0190569 160 181 180
0.606586 0.0445087 0.0576532 16 87 32
0.519286 0.0256398 0.00532028 0 62 58
0.501614 0.0366422 0.00683859 0 67 71
0.465055 0.0644563 0.0141091 0 69 73
0.79736 -0.109269 0.0108411 174 187 177
0.777009 -0.100131 0.00969307 60 140 134
0.745786 -0.0736957 0.0181279 76 112 112
0.701885 -0.0578319 0.0124895 61 128 120
0.640274 0.0277145 0.0565517 10 98 41
0.559396 0.011258 0.00864452 0 51 42
0.525893 0.0245499 0.00531535 0 62 58
0.471279 0.0576186 0.00925243 0 61 58
0.462263 0.0789504 0.0229384 7 36 105
0.819733 -0.113532 0.015065 181 191 183
0.813629 -0.112571 0.0132481 179 192 182
0.765636 -0.0799155 0.0196823 70 127 123
0.752647 -0.0741518 0.018886 54 120 116
0.716099 -0.0624906 0.0128834 68 128 122
0.709949 -0.0598064 0.0124693 67 123 123
0.692264 -0.0369244 0.0237957 196 197 191
0.651997 -0.0214306 0.0193667 51 97 100
0.635421 0.0313531 0.0558506 63 139 98
0.62297 0.0385047 0.0564298 1 82 22
0.551942 0.0156788 0.00721507 0 51 47
0.546491 0.0179614 0.00676841 0 54 53
0.533107 0.0239519 0.0059905 0 60 55
0.513008 0.034648 0.00622526 0 71 68
0.494055 0.0446859 0.00640667 0 68 72
0.479438 0.0530812 0.00708662 0 61 66
0.463753 0.0714216 0.0155191 3 65 72
0.7923 -0.104457 0.00900122 166 183 172
0.785942 -0.103345 0.0071902 160 181 177
0.735643 -0.0676826 0.0151482 98 132 132
0.729595 -0.0650552 0.0147273 79 129 126
0.722059 -0.0624201 0.0136733 80 132 133
0.705859 -0.0531153 0.0144269 77 125 121
0.69606 -0.0407153 0.0205009 79 129 126
0.683229 -0.0291134 0.0246091 85 123 113
0.613385 0.0440141 0.0552466 0 76 13
0.521363 0.0316926 0.00545286 2 65 62
0.505074 0.0418952 0.00691289 0 72 73
0.486653 0.0507829 0.00636531 0 66 68
0.804887 -0.107356 0.0101952 176 189 179
0.776277 -0.0900781 0.0122304 53 133 127
0.717287 -0.0570409 0.0142703 84 151 143
0.466183 0.0686051 0.0104573 3 66 63
0.456824 0.0866492 0.0214568 0 53 120
0.758392 -0.070435 0.0190978 95 126 125
0.749715 -0.0679791 0.0173826 109 165 165
0.700284 -0.0438011 0.0161506 86 134 130
0.689213 -0.031543 0.0216097 120 135 129
0.677833 -0.027535 0.0200202 98 132 132
0.538706 0.0279361 0.00600966 0 61 53
0.532041 0.0309214 0.00561341 0 63 56
0.511564 0.0426826 0.00656597 0 76 77
0.493254 0.0515137 0.00600511 0 68 73
0.479497 0.0602586 0.00735141 0 67 71
0.472256 0.0644173 0.00768823 0 60 61
0.460189 0.0814613 0.0167252 24 67 67
0.824852 -0.111046 0.0121655 175 190 184
0.813082 -0.106808 0.0105881 177 190 180
0.801489 -0.100991 0.010419 171 188 177
0.795592 -0.0984445 0.00998507 163 181 174
0.77412 -0.0802251 0.0159421 44 131 123
0.765985 -0.072189 0.0191538 61 125 128
0.741311 -0.064744 0.0146352 104 135 134
0.710632 -0.0496455 0.0139374 65 129 122
0.501823 0.0501063 0.0066515 0 70 74
0.462109 0.0779625 0.0127489 0 66 62
0.819534 -0.107059 0.0113974 174 191 180
0.785068 -0.0939749 0.00731814 148 176 169
0.716244 -0.0502494 0.0140714 65 124 123
0.627755 0.040011 0.0515732 3 60 12
0.527587 0.0379725 0.00579974 1 77 73
0.519203 0.0427881 0.00618976 0 80 76
0.489722 0.0588822 0.00685089 0 70 76
0.791916 -0.0936122 0.00881737 155 176 169
0.779177 -0.0821096 0.0129717 64 137 134
0.734638 -0.0573648 0.0143312 81 134 131
0.725762 -0.0547781 0.0126071 188 197 212
0.705976 -0.0442509 0.0128152 210 214 213
0.633278 0.0376901 0.0503894 0 60 20
0.609275 0.0498024 0.0500814 0 46 16
0.553218 0.0275819 0.00638691 0 61 53
0.536462 0.0355316 0.00574171 0 67 62
0.511405 0.0499241 0.00690739 0 74 75
0.497556 0.0570414 0.0068393 0 70 75
0.480064 0.0662509 0.00694063 0 71 75
0.471255 0.0721477 0.00806279 0 63 65
0.466062 0.0759677 0.0090167 0 61 59
0.455884 0.0885112 0.0151889 7 64 70
0.807908 -0.097681 0.0106217 167 185 178
0.797531 -0.0925562 0.0103901 154 179 171
0.754715 -0.062952 0.016668 89 132 129
0.748039 -0.062459 0.0141211 84 134 128
0.662607 -0.0326021 0.00166516 197 212 212
0.640354 0.0336416 0.0484191 44 79 86
0.568482 0.0239666 0.00818683 0 53 49
0.546469 0.0324333 0.00563907 0 62 55
0.50415 0.0559047 0.00689336 0 69 74
0.817477 -0.101413 0.0098795 171 186 180
0.784255 -0.0839987 0.00999217 129 167 160
0.774388 -0.0724968 0.0154658 64 144 138
0.762774 -0.0633256 0.0181552 59 115 115
0.696765 -0.0362476 0.011913 100 148 141
0.624536 0.0427461 0.0475097 0 58 12
0.533249 0.0418351 0.00590862 1 82 79
0.527317 0.0452425 0.00618459 0 86 83
0.519011 0.0500128 0.00657094 0 79 78
0.47757 0.0713148 0.00634966 0 76 77
0.46129 0.0848332 0.0106889 0 63 59
0.824636 -0.104596 0.00853503 171 186 180
0.792755 -0.0871167 0.00929967 147 175 168
0.721465 -0.0486647 0.0104609 126 145 151
0.67208 -0.0327738 0.00198246 81 124 124
0.615867 0.0460851 0.044827 0 62 15
0.560999 0.0301959 0.00643146 0 60 53
0.540862 0.0400988 0.00593148 2 68 64
0.497581 0.0641263 0.00722648 0 71 79
0.804104 -0.0885556 0.0113603 158 179 175
0.782037 -0.0742212 0.0138277 81 151 145
0.769954 -0.0664516 0.0151101 83 146 143
0.736126 -0.0511707 0.0130818 227 213 213
0.712037 -0.0439731 0.00843916 81 117 120
0.703668 -0.0399958 0.00810811 85 142 138
0.629334 0.0400402 0.0439841 0 57 12
0.5732 0.0291328 0.00913461 0 57 52
0.567898 0.0296884 0.00722001 0 59 53
0.508148 0.059858 0.00639753 0 70 74
0.489674 0.0696395 0.00653656 0 73 77
0.459386 0.0911852 0.0115476 0 63 62
0.811346 -0.090966 0.0107424 163 181 174
0.799015 -0.0838831 0.0113161 150 178 171
0.745242 -0.0563092 0.0109279 52 118 114
0.549443 0.0395928 0.005588 0 64 56
0.527613 0.0513036 0.00588112 0 87 81
0.518193 0.0567139 0.00631931 0 77 74
0.504064 0.0648293 0.00697659 0 71 75
0.473887 0.0788503 0.00549073 0 76 77
0.466771 0.0854212 0.00798901 0 64 64
0.824039 -0.097337 0.00915061 167 182 179
0.81856 -0.0933637 0.01013 165 183 176
0.793595 -0.0806771 0.00984241 143 175 167
0.646847 0.0283937 0.0384019 0 68 17
0.642592 0.0324899 0.0400487 5 62 14
0.634713 0.0378417 0.0411397 6 59 17
0.611349 0.0463042 0.03788 0 58 14
0.578078 0.0323706 0.0104505 0 57 52
0.556947 0.0378991 0.00563811 0 62 54
0.536382 0.0488845 0.00587032 0 86 81
0.498849 0.0704428 0.00761636 0 75 78
0.487959 0.075045 0.00667403 0 77 78
0.482488 0.0773617 0.00620415 0 75 80
0.809142 -0.0853884 0.0110216 161 179 172
0.789832 -0.0759456 0.010467 132 170 163
0.778776 -0.0646503 0.01534 80 143 143
0.767493 -0.0589934 0.0151384 73 129 129
0.760603 -0.0558604 0.0147325 49 112 109
0.669602 -0.0035919 0.0189658 72 113 112
0.664053 -0.000404797 0.0192239 19 102 95
0.62662 0.0417019 0.0391264 0 56 15
0.566178 0.0360296 0.00634232 0 61 54
0.542758 0.0478329 0.00597889 3 79 72
0.510497 0.0655385 0.00675322 0 72 73
0.824333 -0.0907326 0.011505 166 184 177
0.798526 -0.0775544 0.0112486 145 173 166
0.773387 -0.0614708 0.0138749 51 129 128
0.742925 -0.0489087 0.0109212 49 119 116
0.705519 -0.0257785 0.0141183 92 141 142
0.698819 -0.0219307 0.0144299 73 121 120
0.550259 0.0461278 0.00604324 3 69 65
0.50647 0.0704565 0.00735178 0 73 77
0.49523 0.0760902 0.00714621 0 76 81
0.81583 -0.0849403 0.0109113 161 179 172
0.808226 -0.0797522 0.0119955 155 176 172
0.787609 -0.0662691 0.0144155 118 166 159
0.751657 -0.0513632 0.0109747 56 122 118
0.710963 -0.0238872 0.0165201 83 119 119
0.649561 0.0269706 0.0332555 0 113 45
0.639423 0.0352552 0.0359185 0 57 10
0.620876 0.0434463 0.0345899 0 57 15
0.604505 0.0446444 0.0280467 0 55 16
0.582146 0.036973 0.010825 0 58 50
0.555921 0.0446509 0.00547067 0 64 56
0.52688 0.0613313 0.00682165 0 79 79
0.517587 0.0666691 0.00725396 0 72 73
0.480044 0.08413 0.00534806 0 74 79
0.467997 0.0943314 0.00883037 0 73 73
0.737554 -0.0390722 0.0135634 47 120 114
0.682988 -0.00609361 0.0175667 19 99 93
0.66203 0.00594354 0.0185416 0 104 93
0.629192 0.0403605 0.0339866 0 57 15
0.610379 0.0454352 0.0297343 0 58 14
0.590019 0.0391176 0.0145666 4 56 43
0.543671 0.0542772 0.00646788 0 88 84
0.534898 0.0584976 0.00614352 0 87 84
0.503594 0.0764776 0.00759975 0 75 78
0.490486 0.0823687 0.00674454 0 75 80
0.474952 0.0896539 0.00600219 0 74 79
0.795099 -0.0679491 0.0128351 135 170 163
0.785109 -0.0581266 0.0169724 105 153 149
0.779253 -0.0563965 0.0157758 67 133 132
0.773351 -0.0546405 0.0145813 71 112 111
0.763243 -0.0496517 0.0143171 194 213 216
0.68918 -0.0103794 0.0148244 15 87 88
0.669004 0.00284272 0.017232 0 93 86
0.650294 0.0193071 0.0232439 99 177 150
0.616702 0.0451363 0.0306826 0 61 15
0.56841 0.0426504 0.00575246 0 62 55
0.562024 0.0455016 0.005315 0 64 56
0.552273 0.051919 0.00650313 3 83 77
0.525068 0.0667282 0.00703418 0 78 77
0.824132 -0.0829083 0.0112399 158 179 172
0.804557 -0.0708501 0.012887 143 171 164
0.746021 -0.0421186 0.011191 44 120 116
0.731435 -0.0312958 0.014079 48 124 120
0.705759 -0.0173635 0.0145369 137 158 154
0.694318 -0.0140519 0.0121231 36 89 86
0.676397 0.000316102 0.0166393 22 102 94
0.644717 0.0331819 0.0313704 0 56 15
0.636778 0.0369272 0.0310032 0 56 13
0.625072 0.0420208 0.0300747 0 58 12
0.597036 0.0426387 0.0173851 2 34 23
0.500777 0.0824425 0.00786915 0 78 78
0.485022 0.0882313 0.00565595 0 76 80
0.800865 -0.0662063 0.0135586 134 169 159
0.793784 -0.0596995 0.0161036 122 164 156
0.713361 -0.0167596 0.0168907 210 218 218
0.631817 0.0390214 0.0288079 1 57 14
0.606372 0.0446919 0.0218678 0 53 12
0.55838 0.0527418 0.00637551 0 85 81
0.515696 0.0756317 0.00688407 0 75 74
0.473047 0.0976884 0.00665243 0 79 79
0.817559 -0.0749009 0.0118089 146 174 167
0.784791 -0.0520237 0.017036 81 105 109
0.771168 -0.0466328 0.0154481 68 111 111
0.619298 0.0438421 0.0254751 0 58 12
0.612239 0.0454629 0.0235819 0 58 14
0.569149 0.0491189 0.00633215 0 72 62
0.552522 0.0578575 0.00636503 0 95 84
0.54729 0.0600509 0.00586785 0 95 84
0.542041 0.0622547 0.00537151 0 96 85
0.534686 0.0672906 0.0064542 0 86 85
0.525519 0.0725558 0.00688064 0 79 78
0.509477 0.0817699 0.0076269 0 76 77
0.49536 0.0882555 0.00680252 0 79 80
0.812746 -0.0696243 0.0125447 138 173 166
0.801312 -0.0606283 0.0153044 129 167 160
0.791097 -0.0523331 0.0180072 118 159 155
0.779748 -0.0482426 0.0163075 116 148 142
0.763436 -0.0429211 0.0133535 77 110 113
0.754774 -0.0411831 0.0107862 62 115 112
0.739916 -0.0342684 0.00999224 31 114 107
0.681865 -0.000115995 0.0134353 19 106 98
0.654523 0.0139697 0.0132221 0 108 96
0.649771 0.0272217 0.0230965 0 113 41
0.627708 0.0407032 0.0248654 0 57 15
0.564437 0.0535709 0.00627441 0 86 81
0.478839 0.0978789 0.00580097 0 76 81
0.470423 0.103522 0.00693504 0 79 83
0.824183 -0.0736881 0.0125328 149 174 168
0.809357 -0.0635573 0.0147116 129 164 157
0.670748 0.0104023 0.0159475 0 92 86
0.664198 0.0141646 0.0162522 0 95 88
0.639809 0.0362488 0.0248326 0 56 15
0.578005 0.0491344 0.00685947 0 70 67
0.516241 0.0813797 0.00675438 0 77 76
0.502545 0.0892464 0.00739152 0 78 79
0.489968 0.0940473 0.00574283 0 78 79
0.819387 -0.068436 0.0132839 143 171 167
0.772274 -0.0405699 0.0162222 189 203 207
0.69392 -0.00684569 0.00941489 160 186 192
0.68658 -0.00182445 0.0105029 7 95 91
0.6455 0.0338572 0.0236128 0 56 15
0.55848 0.0604723 0.00600973 0 96 88
0.508955 0.0881124 0.00756702 0 80 79
0.80973 -0.0579869 0.0165152 128 163 156
0.804406 -0.0549293 0.0167628 154 162 162
0.759548 -0.0363991 0.0121121 64 117 114
0.653047 0.0207526 0.0133234 63 160 149
0.635749 0.0379231 0.0208656 1 57 14
0.614143 0.0455093 0.017379 0 57 12
0.601971 0.0460695 0.0119564 0 32 16
0.593536 0.0468949 0.00860577 1 33 25
0.574301 0.0547275 0.00650614 0 86 79
0.552692 0.0655311 0.00601416 0 99 92
0.543634 0.0707341 0.00643556 0 96 91
0.53684 0.0746364 0.00675161 0 91 85
0.527077 0.0794396 0.0064571 0 80 76
0.477375 0.104771 0.00577477 0 81 81
0.824859 -0.0666059 0.0141098 136 171 164
0.817391 -0.0623163 0.0144572 134 168 165
0.787913 -0.0437806 0.0173297 111 152 151
0.780476 -0.0395091 0.0176757 249 235 232
0.766525 -0.0355063 0.0145716 54 107 104
0.749869 -0.0339603 0.00784014 45 121 117
0.740003 -0.0282935 0.0082991 37 115 114
0.67971 0.00633715 0.0111039 0 95 87
0.621023 0.0440556 0.0175871 0 57 15
0.568524 0.0597728 0.0065181 0 96 91
0.516823 0.0870622 0.00667135 0 80 77
0.487308 0.101608 0.00579246 0 80 81
0.815237 -0.0562028 0.0173676 179 194 191
0.81011 -0.0524581 0.0183587 180 198 194
0.802569 -0.0489268 0.0179569 120 139 145
0.797291 -0.0458952 0.0182024 176 201 198
0.773381 -0.034563 0.0170567 60 99 105
0.631657 0.0396379 0.0168759 0 56 13
0.561649 0.0654448 0.00658517 1 99 91
0.549752 0.0714778 0.00638595 0 100 90
0.507742 0.0940068 0.00683498 0 80 79
0.499071 0.0981872 0.00648573 0 80 79
0.762349 -0.0297501 0.014357 53 117 110
0.754879 -0.0286528 0.0116859 51 117 113
0.676208 0.0125421 0.0115724 15 113 107
0.62662 0.0418224 0.0146338 0 53 12
0.580681 0.0578299 0.0069604 0 89 84
0.575098 0.0610364 0.00722011 0 98 89
0.542473 0.0781787 0.0072285 0 93 88
0.533928 0.082288 0.00687133 0 86 81
0.527189 0.0861591 0.00718486 0 83 79
0.493415 0.103162 0.00649202 0 77 76
0.823677 -0.0569293 0.0173591 172 180 183
0.793071 -0.0401466 0.0180262 219 216 226
0.781508 -0.0335056 0.0185641 114 123 129
0.737053 -0.00876813 0.0198754 65 111 114
0.667402 0.0176969 0.0102522 0 90 86
0.661038 0.0197591 0.00903491 0 91 82
0.643677 0.0353061 0.0151392 0 56 15
0.597862 0.0520631 0.00819048 0 68 61
0.481349 0.11102 0.00604392 0 83 88
0.817364 -0.0484701 0.0205093 161 165 164
0.812027 -0.046199 0.0199989 153 158 159
0.806506 -0.0446172 0.0187384 133 160 160
0.76981 -0.0275134 0.016652 93 126 129
0.693955 0.0033408 0.00804179 0 96 91
0.684705 0.00547563 0.0054374 0 91 85
0.655121 0.0264409 0.010607 0 96 89
0.557492 0.0737752 0.00680318 2 104 97
0.549692 0.0782552 0.00716602 0 100 93
0.515169 0.0956999 0.00649592 0 81 77
0.488935 0.109179 0.00619895 0 84 85
0.78889 -0.0344355 0.0178643 124 141 144
0.776105 -0.027885 0.0176983 106 137 136
0.76196 -0.0213461 0.0168349 54 113 112
0.732783 -0.00379507 0.0189529 26 92 91
0.609126 0.0513743 0.00949145 0 75 67
0.567566 0.0712811 0.0076213 0 103 96
0.537377 0.0870354 0.00750429 2 87 83
0.524422 0.0936831 0.00734622 0 83 79
0.510672 0.0999952 0.00646447 0 79 76
0.503959 0.103851 0.00677674 0 80 76
0.824505 -0.0492879 0.0198489 159 158 158
0.800044 -0.0384017 0.0179359 192 192 192
0.755466 -0.0151702 0.0177216 44 120 116
0.69305 0.0111881 0.0114725 9 104 97
0.674115 0.0189002 0.00930255 17 105 101
0.627542 0.0424869 0.00841826 0 70 57
0.585743 0.0633309 0.00731186 0 89 83
0.563034 0.0755833 0.00760554 0 104 97
0.543558 0.0859791 0.00774888 1 92 89
0.532882 0.0913197 0.00748275 0 86 82
0.497607 0.108417 0.00607289 0 79 78
0.816996 -0.0417599 0.0215696 134 155 154
0.80608 -0.0386466 0.0190185 206 199 196
0.782664 -0.0275646 0.0178136 97 133 133
0.622424 0.0463233 0.00767913 0 73 59
0.555215 0.0817702 0.00774678 1 103 96
0.549022 0.0845379 0.00727011 1 96 92
0.823737 -0.0432158 0.0218727 134 159 153
0.79569 -0.0334045 0.0170435 119 138 144
0.772579 -0.0209173 0.0173519 78 120 124
0.742805 -0.0053902 0.0172035 130 171 170
0.59155 0.0641666 0.00737146 0 83 74
0.518799 0.102017 0.00692209 0 81 77
0.510293 0.106115 0.00655103 1 82 79
0.812676 -0.0368101 0.0207058 248 228 220
0.788947 -0.0278929 0.0171972 104 140 137
0.759894 -0.011206 0.0185487 91 134 131
0.698567 0.0153795 0.0129453 4 106 102
0.6654 0.0265755 0.0068006 0 91 84
0.597968 0.0621647 0.00686244 0 81 74
0.504758 0.110989 0.00658598 0 80 76
0.490675 0.118293 0.00647236 1 86 85
0.765919 -0.0122484 0.0188831 73 88 88
0.73782 0.000756959 0.0171072 75 128 125
0.612029 0.0573367 0.00754351 0 80 68
0.574429 0.0781495 0.00852185 1 106 99
0.56222 0.083595 0.00754827 2 104 97
0.552374 0.0892501 0.00800629 0 96 91
0.542528 0.0949053 0.00846431 0 88 85
0.527226 0.101344 0.00686386 0 83 79
0.499578 0.114873 0.0058377 0 83 79
0.818133 -0.0343558 0.0224865 163 157 159
0.806168 -0.0313923 0.0191791 129 146 149
0.780278 -0.0212116 0.0157468 57 116 117
0.752542 -0.00449956 0.0178098 35 116 113
0.658814 0.0344829 0.00748709 0 93 82
0.583643 0.0753142 0.00866565 1 103 93
0.534129 0.100627 0.00787785 0 84 80
0.795885 -0.0262055 0.0171932 116 143 143
0.762986 -0.00419007 0.0218228 61 113 114
0.696661 0.0237674 0.0148358 0 92 88
0.665006 0.0325909 0.00701079 89 172 165
0.627993 0.0483911 0.003309 0 74 63
0.824232 -0.0338634 0.0227239 191 183 185
0.801883 -0.0264731 0.0183258 121 153 147
0.704721 0.0207762 0.0143008 0 101 95
0.525723 0.108028 0.00709137 0 83 79
0.516581 0.111722 0.005963 0 83 79
0.505945 0.117054 0.00568098 0 80 79
0.498255 0.12147 0.00603869 0 85 84
0.815502 -0.0280242 0.0222314 130 154 158
0.773685 -0.0125434 0.0156096 80 111 115
0.749234 0.00227665 0.0175258 82 130 129
0.74276 0.0052189 0.0170482 113 149 152
0.712498 0.0218242 0.0176771 0 96 88
0.67115 0.0347075 0.00869698 0 103 93
0.595166 0.0736938 0.00755875 0 89 82
0.564315 0.0906373 0.00821505 0 103 96
0.55243 0.0974637 0.00876792 4 95 89
0.547028 0.100567 0.00901923 0 88 84
0.512214 0.115906 0.00596579 0 80 77
0.78988 -0.0194514 0.0154971 79 120 119
0.770623 -0.00761646 0.0171738 85 131 134
0.758128 0.00188353 0.0200976 100 134 134
0.58275 0.083258 0.00873491 3 105 98
0.541974 0.104356 0.00828924 0 87 83
0.532964 0.107982 0.0071467 2 85 78
0.808947 -0.0233817 0.0199563 149 164 164
0.73952 0.0118607 0.0184888 84 133 137
0.662255 0.0415631 0.0072088 0 97 88
0.607293 0.0708141 0.007417 0 82 75
0.80085 -0.0194448 0.0178626 101 142 138
0.795406 -0.0178594 0.0165461 133 151 150
0.782115 -0.0140782 0.01324 116 124 127
0.529706 0.113175 0.00692978 0 85 77
0.522476 0.116556 0.00648123 2 83 80
0.507936 0.123367 0.00558789 7 81 81
0.824482 -0.026038 0.0221537 194 194 197
0.76978 -0.000768605 0.0184033 98 141 141
0.753292 0.00793301 0.0183834 65 132 124
0.673678 0.0405921 0.00870986 7 109 105
0.613967 0.0710446 0.00755314 0 81 72
0.602256 0.0777712 0.00809793 0 93 88
0.557239 0.10209 0.00861831 0 94 87
0.550127 0.105406 0.00816226 0 87 83
0.516329 0.120975 0.00580009 0 80 77
0.503337 0.128438 0.00640449 3 86 79
0.763064 0.00698702 0.0209667 61 120 121
0.597877 0.0819265 0.00813957 0 96 91
0.538687 0.112856 0.00773741 0 86 82
0.80872 -0.0176479 0.0187371 121 145 146
0.789884 -0.0137149 0.0124951 75 89 93
0.702622 0.0295206 0.00943617 6 101 100
0.622655 0.0685662 0.00603795 0 80 70
0.609999 0.0773653 0.0082085 0 88 80
0.545807 0.111175 0.00803101 0 86 78
0.778635 -0.00412558 0.0144845 31 116 112
0.747763 0.0151324 0.0175065 108 139 140
0.735312 0.0215206 0.0172928 48 124 120
0.67899 0.043949 0.00960469 0 107 104
0.663577 0.0497493 0.00714999 0 95 87
0.577959 0.0958729 0.00796113 8 103 96
0.565628 0.102192 0.00774184 0 102 95
0.529735 0.119755 0.00623978 1 84 77
0.814973 -0.0165514 0.0198369 94 135 134
0.796217 -0.0133922 0.0127599 104 104 107
0.770556 0.00667631 0.0195183 126 157 156
0.760564 0.0124157 0.0199831 71 120 121
0.586978 0.0930847 0.0081845 4 95 89
0.559218 0.107507 0.00788598 1 93 83
0.523652 0.124128 0.00556573 0 83 76
0.517532 0.126882 0.0050555 3 83 77
0.512163 0.129965 0.00530523 4 84 76
0.776169 0.00199359 0.0159737 24 122 119
0.742352 0.0198983 0.0159529 130 165 175
0.672367 0.0494623 0.00805109 0 102 96
0.627974 0.0711629 0.0061314 0 81 70
0.602238 0.0867046 0.00812561 0 94 87
0.554259 0.111224 0.0071697 0 89 81
0.807007 -0.0133784 0.0152385 201 180 179
0.788547 -0.00807901 0.0105044 15 106 103
0.783677 -0.00452403 0.01153 12 110 104
0.756212 0.0165544 0.0184005 97 131 131
0.708509 0.030316 0.00623796 20 118 115
0.622054 0.0769426 0.00706386 0 80 73
0.571431 0.104503 0.00782082 0 100 90
0.537242 0.120353 0.0054164 2 85 78
0.824392 -0.0164962 0.0199432 110 137 137
0.655324 0.0609612 0.00698227 0 95 85
0.63393 0.0709818 0.00557452 0 79 68
0.615622 0.082253 0.00722719 0 90 86
0.549289 0.116574 0.00630797 3 86 79
0.521315 0.13113 0.00600736 7 83 79
0.512034 0.135705 0.00563809 5 85 79
0.794674 -0.00842151 0.0100081 21 111 103
0.780942 0.000973279 0.0122529 16 118 111
0.77085 0.0128016 0.0191464 119 143 147
0.750749 0.0235928 0.0192785 30 111 114
0.686187 0.0501206 0.0110398 0 101 96
0.669547 0.0559084 0.00779882 0 100 91
0.610849 0.0873607 0.00812034 0 94 87
0.586244 0.100739 0.00846195 5 96 90
0.578281 0.104559 0.00802938 5 103 95
0.534082 0.125422 0.00526746 7 83 76
0.527721 0.129076 0.00556337 0 81 74
0.813443 -0.0123544 0.0146705 138 123 134
0.801611 -0.00931902 0.0111958 38 111 105
0.766218 0.0162742 0.0184774 46 110 113
0.67846 0.0538942 0.00887443 0 101 95
0.651782 0.0662092 0.00689541 0 92 84
0.630486 0.0776885 0.00708103 0 84 76
0.594092 0.0985925 0.00877408 0 93 86
0.570246 0.110033 0.00746831 2 97 90
0.544343 0.121902 0.00545319 3 86 79
0.776722 0.00880233 0.0146831 16 121 117
0.754079 0.108836 0.109353 87 163 159
0.663917 0.0623408 0.00782519 0 96 88
0.642778 0.0722317 0.00638744 0 81 73
0.601274 0.0960703 0.00831816 0 93 86
0.566031 0.114062 0.00753656 3 93 82
0.558024 0.117911 0.007102 0 88 77
0.518014 0.138641 0.00654209 9 83 83
0.807951 -0.00831652 0.0123399 52 118 114
0.786163 0.00120377 0.0101172 0 107 101
0.658064 0.0665478 0.00717668 0 94 86
0.638981 0.0767602 0.00725536 0 83 72
0.627064 0.0828567 0.00700069 0 89 83
0.540153 0.127537 0.00538037 4 84 78
0.532795 0.131763 0.00572265 8 84 80
0.524386 0.136593 0.00611383 7 83 79
0.819798 -0.0113172 0.0141425 85 99 103
0.796927 -0.00266003 0.01034 15 113 107
0.76178 0.0227528 0.0176525 65 121 121
0.747453 0.111609 0.105914 20 111 111
0.649119 0.072531 0.00667203 0 88 79
0.609948 0.0950299 0.00849426 0 94 90
0.583914 0.10849 0.00808321 3 98 91
0.576004 0.112287 0.00764011 3 98 91
0.792242 0.000852068 0.00966336 4 112 104
0.746019 0.0318696 0.0166921 45 87 94
0.742171 0.109294 0.0989923 121 164 164
0.671914 0.0632626 0.00794318 0 100 91
0.635558 0.0819102 0.00719519 0 87 79
0.591726 0.106342 0.00842119 4 92 88
0.571824 0.116284 0.00772084 3 95 85
0.530488 0.137047 0.0063914 9 82 76
0.783215 0.0090869 0.011634 18 123 119
0.773756 0.0160055 0.0137042 2 114 107
0.756377 0.0297016 0.0185882 97 128 129
0.68624 0.0588436 0.00962443 49 105 105
0.624576 0.0890619 0.00678734 0 92 85
0.61898 0.0930187 0.00786273 0 94 87
0.59948 0.104219 0.00876985 3 93 85
0.556958 0.124928 0.00667246 4 87 77
0.550015 0.128173 0.00618037 9 85 78
0.813684 -0.00611596 0.0109623 33 120 112
0.805591 -0.0022085 0.0105217 21 116 109
0.752978 0.10952 0.102851 28 106 105
0.631151 0.087611 0.00719694 0 91 85
0.607178 0.102121 0.00912925 0 91 85
0.56662 0.122453 0.00774756 4 91 83
0.543071 0.133014 0.00557456 10 83 80
0.536832 0.136598 0.0058648 6 82 78
0.52824 0.142274 0.00708159 4 84 78
0.797971 0.00298212 0.00998962 7 112 105
0.751733 0.0354531 0.0186936 33 114 114
0.667718 0.0696655 0.00703854 0 94 86
0.662147 0.0721259 0.00647856 0 94 85
0.657049 0.0750539 0.0067157 0 96 87
0.644815 0.0820811 0.00728485 0 87 81
0.582326 0.116494 0.00855351 2 94 84
0.793528 0.00708546 0.0101309 6 114 106
0.76804 0.0224623 0.0121378 132 168 171
0.679567 0.0659057 0.00804204 0 102 96
0.651769 0.0796603 0.00687178 0 100 91
0.638544 0.0872562 0.00748698 0 89 80
0.614129 0.101279 0.00862275 0 94 87
0.596835 0.111213 0.00942725 1 92 86
0.590088 0.114351 0.00892 6 91 87
0.575488 0.121262 0.00795689 3 93 85
0.780444 0.0168834 0.0115014 0 117 111
0.762535 0.0293767 0.014804 95 130 137
0.748388 0.111046 0.0977776 99 135 138
0.739456 0.111029 0.0924311 19 110 107
0.627229 0.0953254 0.00792787 0 95 87
0.621138 0.0988234 0.00821118 0 93 86
0.562506 0.129559 0.00764611 2 85 78
0.54876 0.135983 0.00663924 11 84 78
0.542877 0.138626 0.00608975 2 85 78
0.813446 -0.000529437 0.00991091 16 118 111
0.675626 0.0705608 0.00724531 0 95 90
0.634196 0.0928898 0.00752226 0 94 85
0.604825 0.109759 0.00888856 0 89 84
0.555667 0.134326 0.00704949 8 84 77
0.536749 0.143725 0.00627924 10 83 80
0.529549 0.147861 0.00661417 11 84 81
0.824969 -0.00414616 0.010978 22 119 108
0.80803 0.00411967 0.0101116 7 115 109
0.803124 0.00693754 0.0103398 10 118 112
0.787209 0.0153465 0.0102529 1 116 108
0.68634 0.0674288 0.00832781 0 100 100
0.777187 0.0233696 0.0114991 5 118 114
0.759433 0.0357567 0.0148126 84 134 131
0.693096 0.0650997 0.00794816 26 107 107
0.669692 0.0763529 0.00654931 0 94 89
0.656614 0.0838646 0.00715769 0 101 93
0.620397 0.104666 0.00884246 1 92 86
0.613355 0.108711 0.00917005 0 93 86
0.587902 0.121871 0.00869569 7 90 83
0.571369 0.129907 0.00780645 2 89 81
0.66547 0.0803307 0.00667831 0 100 94
0.648407 0.0901317 0.00747211 0 98 89
0.639373 0.0953205 0.00789235 0 94 88
0.63335 0.0987796 0.00817252 0 96 87
0.627328 0.102239 0.00845268 2 94 84
0.601607 0.116284 0.00881794 4 91 83
0.594565 0.120329 0.00914554 1 88 80
0.578123 0.128316 0.00824798 8 91 84
0.566621 0.133467 0.00712066 1 88 80
0.821307 0.00181265 0.0101975 4 116 106
0.814348 0.00508376 0.00968804 6 118 111
0.795439 0.0144918 0.0089012 1 113 106
0.762341 0.109026 0.0970967 132 173 174
0.742195 0.111158 0.087202 0 108 102
0.737078 0.111917 0.0849403 99 173 176
0.680751 0.0738299 0.00673736 0 98 92
0.675754 0.0766996 0.00696978 0 99 93
0.549974 0.143135 0.00615517 10 86 82
0.534714 0.151899 0.00686502 11 84 81
0.769066 0.0297184 0.00841838 10 121 118
0.756677 0.0426292 0.0156767 100 143 143
0.6451 0.0951261 0.00750324 0 92 86
0.54393 0.148165 0.00636291 10 86 82
0.749697 0.113898 0.0921689 78 114 117
0.686717 0.0742099 0.00718648 0 100 94
0.619035 0.111639 0.00866045 0 91 85
0.610449 0.115848 0.00822264 0 88 80
0.56465 0.139264 0.0070041 6 86 80
0.55788 0.14243 0.0064818 7 85 84
0.807835 0.0126634 0.00905836 11 123 116
0.79211 0.0209747 0.00895061 0 112 104
0.786277 0.0243251 0.00922196 3 111 105
0.778737 0.0293763 0.010412 2 117 109
0.696109 0.0732325 0.0100594 79 148 149
0.672149 0.0833908 0.00697762 0 103 98
0.625917 0.109225 0.00828903 0 91 85
0.600414 0.123152 0.00863616 5 88 81
0.593435 0.127161 0.00896081 4 87 80
0.586789 0.130257 0.00843071 4 87 80
0.814279 0.0111953 0.00957481 14 122 114
0.770949 0.110118 0.0982432 49 119 116
0.681855 0.0793488 0.00648088 0 103 97
0.665022 0.0890177 0.00726397 0 101 93
0.65659 0.0931419 0.00681493 0 101 95
0.639276 0.103805 0.00846165 0 95 89
0.633334 0.107218 0.00873803 0 94 87
0.579117 0.135483 0.00789504 2 89 81
0.573122 0.138927 0.00817394 5 88 81
0.801855 0.0184059 0.00844711 9 114 110
0.773793 0.0345241 0.00975255 0 117 111
0.768171 0.0356021 0.00748414 45 114 121
0.652 0.0980257 0.00782852 0 99 90
0.646073 0.10143 0.00810428 0 95 86
0.556726 0.148447 0.0072008 10 86 82
0.542947 0.155645 0.0069985 4 87 80
0.824819 0.00815505 0.00905045 1 116 108
0.742515 0.114066 0.0821953 144 170 173
0.61774 0.118514 0.0085398 1 88 80
0.608227 0.123263 0.008137 5 88 81
0.755075 0.116047 0.0910859 216 187 196
0.678267 0.0859863 0.00653634 0 104 100
0.663515 0.0944594 0.00722258 0 101 94
0.630077 0.113665 0.00877807 0 89 84
0.624573 0.116113 0.00818676 1 86 82
0.599287 0.129923 0.00851572 8 84 80
0.552847 0.153744 0.00728674 10 86 82
0.813267 0.0177896 0.00956995 13 121 115
0.79469 0.0270366 0.00873542 1 113 106
0.785081 0.0325557 0.00918242 2 107 103
0.769707 0.0413863 0.00989763 18 115 119
0.692673 0.0806523 0.00753573 0 104 100
0.673639 0.090874 0.00757188 0 104 98
0.658443 0.0988906 0.00742941 0 104 98
0.638396 0.111116 0.00921131 0 90 83
0.593348 0.134856 0.00875886 6 86 80
0.583798 0.13963 0.00835377 10 86 82
0.562863 0.14952 0.00677961 14 87 81
0.820413 0.0151789 0.00923459 4 116 109
0.807837 0.0216928 0.00896827 1 113 106
0.801142 0.0255381 0.00927971 0 112 107
0.780822 0.0364996 0.00937359 0 111 102
0.762656 0.113631 0.0902468 34 108 111
0.685175 0.0857604 0.00701215 0 104 100
0.577201 0.14423 0.00777818 10 86 79
0.571557 0.146762 0.00718939 9 85 78
0.768749 0.113574 0.09271 104 137 140
0.701393 0.0793693 0.0079454 78 76 86
0.654759 0.104739 0.00840801 0 101 92
0.645015 0.110336 0.00886131 0 94 85
0.605744 0.131477 0.00898144 6 86 78
0.670179 0.0973873 0.0076757 0 101 91
0.664346 0.100738 0.00794705 0 102 93
0.63461 0.117111 0.00847493 1 88 80
0.621943 0.124387 0.00906421 4 87 80
0.614147 0.128865 0.00942685 2 85 75
0.600833 0.135806 0.00919086 8 84 77
0.590396 0.141095 0.00882097 6 86 80
0.549945 0.162211 0.00813655 15 89 79
0.790065 0.0356616 0.00894699 13 118 114
0.778642 0.0422224 0.00947835 0 118 111
0.771548 0.047705 0.0115232 0 116 109
0.683081 0.092182 0.00792194 0 103 97
0.651582 0.10957 0.00852982 0 98 89
0.558645 0.159431 0.00856618 9 89 83
0.806907 0.0281733 0.00903213 13 121 115
0.801222 0.0314382 0.00929655 22 124 117
0.688681 0.0904615 0.00765651 0 104 100
0.678061 0.0965611 0.00815052 0 105 100
0.582905 0.147705 0.00828 8 84 77
0.567792 0.154982 0.00726422 15 88 85
0.816992 0.0245582 0.0094396 0 114 106
0.796046 0.0358884 0.00955255 15 120 113
0.696616 0.0880965 0.00814793 0 106 100
0.630484 0.12398 0.00864004 4 87 77
0.619839 0.130094 0.0091352 7 83 79
0.824973 0.0214459 0.0090896 1 116 108
0.668098 0.105264 0.00861622 0 105 96
0.65945 0.110231 0.00901852 0 100 90
0.649299 0.115364 0.00862733 1 91 83
0.64352 0.118683 0.00889616 4 84 78
0.611442 0.13571 0.00866147 6 82 78
0.598205 0.142615 0.0084138 7 83 79
0.577401 0.153167 0.00765467 9 83 83
0.555964 0.16548 0.00865193 11 89 88
0.813048 0.0290664 0.00880415 16 121 114
0.78815 0.0419743 0.00823148 13 121 113
0.777057 0.0490422 0.00961296 0 116 111
0.673701 0.103531 0.00836277 0 104 95
0.606589 0.139988 0.00888833 10 83 77
0.591433 0.147997 0.00872793 6 86 78
0.565779 0.161338 0.00819041 14 87 84
0.806946 0.034038 0.00911535 26 128 121
0.70812 0.0887162 0.0111102 6 100 103
0.702547 0.0905278 0.00963449 0 107 103
0.693112 0.0945574 0.00833843 0 107 103
0.685973 0.097963 0.00780305 0 108 98
0.783556 0.047549 0.00849577 0 122 115
0.773726 0.0545807 0.010692 0 116 109
0.656209 0.116536 0.00920289 0 93 86
0.626387 0.132279 0.00885119 4 84 76
0.618717 0.136684 0.00920796 7 83 79
0.573672 0.159786 0.00782548 5 86 83
0.824849 0.0273674 0.00922075 0 114 107
0.666566 0.112061 0.00874035 0 96 88
0.638771 0.126644 0.00829033 3 83 77
0.59727 0.149098 0.00847786 9 85 81
0.58601 0.154875 0.0081302 10 90 82
0.819708 0.0317731 0.00950127 18 126 120
0.812274 0.0360433 0.00984712 23 128 121
0.804839 0.0403135 0.010193 28 126 120
0.681624 0.104882 0.0080631 0 107 99
0.633341 0.130547 0.00768865 1 84 77
0.56053 0.169611 0.00758166 9 89 83
0.79657 0.0451376 0.00887199 25 123 117
0.781665 0.0536988 0.00956537 0 119 108
0.70032 0.0969842 0.00897176 0 109 103
0.688547 0.103059 0.00864392 0 109 104
0.676719 0.109165 0.00831861 0 105 95
0.78964 0.0505679 0.00923983 19 121 114
0.714224 0.0904571 0.00836034 68 140 141
0.662388 0.118859 0.00901659 0 88 84
0.649 0.125178 0.00788429 4 87 80
0.607824 0.147457 0.00804464 6 86 80
0.581608 0.161144 0.00750908 7 87 81
0.616069 0.144871 0.00856797 8 84 80
0.569455 0.168911 0.00721815 13 89 85
0.817809 0.0386401 0.00979558 32 130 124
0.773772 0.061888 0.00919935 0 116 109
0.768484 0.0656071 0.0103269 116 181 189
0.64353 0.130559 0.00732387 1 84 77
0.631215 0.137633 0.00789679 4 84 78
0.622688 0.14253 0.00829343 6 86 78
0.602131 0.153656 0.00836812 4 87 80
0.809997 0.0445616 0.0102205 29 127 121
0.693463 0.106056 0.0085728 0 106 98
0.675183 0.115876 0.00853957 0 95 87
0.659231 0.125038 0.00928164 1 88 80
0.63873 0.134773 0.00758456 4 84 76
0.59579 0.158077 0.00781488 5 85 79
0.787112 0.057781 0.00957948 6 121 113
0.781347 0.0604144 0.00896205 2 120 114
0.763682 0.0827659 0.0257249 87 123 126
0.709573 0.098927 0.0087585 0 101 98
0.683944 0.112969 0.00906509 0 101 93
0.589449 0.162498 0.00726163 5 88 81
0.824638 0.0390107 0.00967464 31 129 121
0.805268 0.0494604 0.00968813 18 123 116
0.718118 0.0961353 0.00930409 18 84 83
0.667436 0.123217 0.00899889 0 87 79
0.654206 0.129463 0.00783908 5 88 78
0.616037 0.15071 0.00872706 3 86 79
0.81687 0.0448964 0.0101097 25 127 120
0.797321 0.0547759 0.0092398 10 122 115
0.648879 0.133293 0.00724875 2 89 81
0.629173 0.144611 0.00816542 3 86 79
0.611345 0.154851 0.00899479 9 85 81
0.580102 0.170773 0.00777926 10 90 82
0.7793 0.0658775 0.00926008 1 114 110
0.770688 0.072169 0.011444 0 116 109
0.644122 0.137467 0.00752355 0 89 81
0.575467 0.174883 0.00804233 13 89 85
0.811251 0.0502889 0.00963674 19 124 117
0.738213 0.101629 0.0255458 144 160 166
0.792455 0.0618305 0.00969917 9 121 114
0.758931 0.089112 0.022007 116 141 151
0.743775 0.0958106 0.0200249 79 104 114
0.679016 0.122305 0.00870647 1 92 86
0.639343 0.143085 0.00786495 2 89 81
0.627233 0.150041 0.00842832 6 86 80
0.621643 0.153251 0.00868834 6 86 80
0.590671 0.169035 0.00744207 10 88 87
0.803848 0.0566991 0.00925489 14 122 116
0.785476 0.0665846 0.00921186 7 119 112
0.722492 0.10076 0.00944875 65 100 107
0.705576 0.109809 0.00933791 0 107 101
0.603574 0.163727 0.00779909 9 89 83
0.824514 0.0475685 0.0101828 25 130 126
0.778751 0.0718578 0.00961243 0 117 110
0.716376 0.105024 0.00891521 0 99 92
0.670878 0.129161 0.00833261 3 86 79
0.658341 0.135697 0.00801608 2 92 84
0.817604 0.0522754 0.00970029 21 129 123
0.771704 0.078639 0.0118355 2 115 111
0.76806 0.0827222 0.0147103 164 199 209
0.69744 0.116651 0.0089781 0 96 91
0.685972 0.122575 0.00860986 2 93 87
0.649391 0.141596 0.00760635 4 94 86
0.632745 0.151157 0.00838074 5 86 83
0.810695 0.0569824 0.00921782 19 124 120
0.791795 0.067838 0.010097 6 119 115
0.736739 0.10872 0.0253106 135 161 167
0.712307 0.110186 0.00927596 0 104 100
0.692241 0.120389 0.00840197 3 94 88
0.617042 0.161596 0.0091889 12 85 82
0.610848 0.164493 0.00857331 11 84 81
0.59721 0.171664 0.00830397 12 85 79
0.80308 0.0627534 0.00967386 16 124 118
0.767112 0.0893491 0.019499 102 144 148
0.726385 0.106146 0.0123359 30 81 89
0.677883 0.129386 0.00825185 2 93 87
0.656268 0.141142 0.00835159 5 93 89
0.623506 0.1593 0.00896993 7 85 84
0.580822 0.181838 0.00823825 12 88 84
0.747374 0.103379 0.0223567 113 148 155
0.706948 0.115417 0.0088051 3 98 97
0.668105 0.135754 0.00788872 9 90 87
0.645548 0.148052 0.00803028 0 88 84
0.629642 0.157846 0.00967799 10 84 84
0.591805 0.177605 0.00871478 14 87 84
0.752216 0.1 0.0195342 60 117 123
0.733457 0.110119 0.019497 174 191 194
0.640011 0.152641 0.00837762 5 86 83
0.824275 0.0554051 0.00992947 22 128 127
0.817003 0.0589277 0.00935592 20 126 125
0.790044 0.0737581 0.00969824 5 118 114
0.779325 0.0799146 0.0101969 2 120 114
0.690263 0.126491 0.00795735 4 95 92
0.684809 0.129624 0.00821107 3 94 91
0.811408 0.0641768 0.010648 18 123 119
0.797689 0.070752 0.00945856 2 115 111
0.774793 0.0845549 0.0114375 0 113 113
0.745284 0.10933 0.0237761 156 160 164
0.712725 0.116292 0.00884191 8 89 86
0.704164 0.120557 0.00832636 4 95 92
0.664194 0.14221 0.00835807 8 93 89
0.615615 0.168808 0.00879031 11 84 81
0.609465 0.171688 0.00816259 12 85 79
0.59778 0.177748 0.00779234 10 86 82
0.804602 0.0688129 0.0101728 8 120 113
0.785503 0.0784822 0.00922961 0 116 113
0.720636 0.113138 0.00858383 9 85 81
0.696315 0.125807 0.00788355 5 96 93
0.658124 0.146442 0.00782848 5 93 89
0.623854 0.165475 0.00850685 9 83 83
0.740303 0.112956 0.0215507 140 138 153
0.670376 0.141448 0.00828228 6 91 87
0.6363 0.160371 0.00894958 11 84 81
0.765303 0.096719 0.0159365 185 185 191
0.756581 0.106902 0.0237012 75 117 124
0.681117 0.136667 0.00789454 0 99 92
0.604169 0.178923 0.00871449 12 85 82
0.588902 0.187046 0.00850483 15 88 82
0.824509 0.0614942 0.00963693 26 131 127
0.732641 0.113616 0.0129887 23 97 97
0.702156 0.126612 0.00795366 6 97 94
0.690007 0.132945 0.00759696 1 99 93
0.651965 0.153506 0.00752289 7 92 88
0.59719 0.183677 0.00822719 14 87 84
0.819672 0.0656368 0.01 17 125 119
0.773771 0.0913586 0.0112115 0 114 109
0.752175 0.112763 0.0251506 66 101 111
0.631172 0.166833 0.00860607 8 82 82
0.620598 0.172264 0.00817408 13 82 83
0.614267 0.175901 0.00846862 11 84 81
0.810304 0.0717377 0.00965212 14 122 116
0.804161 0.0752655 0.00993785 7 118 115
0.798019 0.0787934 0.0102236 4 115 112
0.790769 0.082317 0.00963498 2 115 111
0.781092 0.087875 0.0100851 0 121 117
0.745939 0.114477 0.0209795 201 208 215
0.738583 0.114855 0.0157663 29 99 110
0.724967 0.117547 0.00899238 8 84 80
0.709424 0.125833 0.00878948 4 95 89
0.676318 0.143566 0.00847773 5 93 92
0.642887 0.161486 0.00818111 7 85 84
0.718144 0.122195 0.00851595 7 92 88
0.697238 0.133564 0.00856053 8 99 96
0.667652 0.149278 0.00808099 4 92 88
0.626977 0.171362 0.00811731 14 83 84
0.406796 0.17911 0.0861224 140 87 171
0.409814 0.185047 0.0808824 58 115 167
0.409459 0.168753 0.0843022 0 110 175
0.409285 0.174554 0.0821401 66 95 179
0.411033 0.162114 0.0829479 7 135 202
0.412851 0.166355 0.0777542 46 85 186
0.413503 0.157615 0.0790224 6 106 173
0.415325 0.161834 0.0738091 152 82 172
0.416352 0.153001 0.0730798 0 100 164
0.416049 0.164464 0.0686145 46 80 175
0.417075 0.147554 0.0686866 41 159 226
0.41926 0.15358 0.0674569 104 81 171
0.419528 0.159169 0.0631494 0 98 180
0.420588 0.147497 0.0635963 12 84 183
0.421901 0.160377 0.0569212 0 97 178
0.423 0.153886 0.0577002 0 117 198
0.423515 0.148058 0.0579436 0 100 184
0.426773 0.298657 7.23236e-05 0 116 107
0.43063 0.304076 -0.000101282 0 119 108
0.435002 0.308759 0.00027918 0 120 108
0.439365 0.313429 0.000660081 0 121 110
0.418768 0.14214 0.0555395 130 151 172
0.424335 0.158706 0.0518139 13 69 170
0.425101 0.290944 -0.000346452 0 113 104
0.431641 0.293327 -0.000546059 0 113 104
0.438032 0.302306 -0.000833712 0 113 104
0.447215 0.310846 0.000496294 0 120 112
0.426512 0.14578 0.0534306 28 72 183
0.426421 0.151459 0.0511025 109 82 201
0.42998 0.285654 -0.00094794 0 110 102
0.445022 0.303887 -0.000458944 0 114 106
0.45542 0.314141 0.000822206 0 118 107
0.435964 0.288737 -0.00168627 0 109 105
0.440295 0.293372 -0.00129622 0 112 103
0.423371 0.138487 0.0500663 16 111 205
0.449282 0.299242 -0.00157311 0 111 103
0.457106 0.305897 -0.000164554 0 114 104
0.227553 -0.000281535 0.000891136 0 131 125
0.232152 0.00473631 0.00127299 0 132 126
0.428374 0.141907 0.0489687 0 125 211
0.428821 0.152637 0.0448268 0 54 155
0.427615 0.162487 0.0401704 74 61 141
0.442561 0.284501 -0.00172029 0 106 102
0.447614 0.2916 -0.00194771 0 110 105
0.456691 0.300025 -0.000589765 0 112 102
0.466545 0.304271 0.000302878 0 115 105
0.225694 -0.0120868 -0.000540348 0 134 126
0.238164 0.00112192 0.000676478 0 132 126
0.431472 0.144809 0.0447251 0 108 197
0.430812 0.156818 0.0394206 88 52 136
0.456634 0.290837 -0.0020444 0 110 102
0.464386 0.297417 -0.000615268 0 111 103
0.232922 -0.00866617 -0.000722625 0 132 127
0.430824 0.137427 0.045075 38 156 248
0.431267 0.165304 0.0337572 100 117 205
0.462233 0.290578 -0.0015298 0 110 102
0.240868 -0.00565188 -0.000329071 0 133 126
0.352186 0.119771 0.00500285 33 75 159
0.434477 0.142526 0.0402002 134 53 147
0.434441 0.14819 0.0378079 43 51 152
0.435012 0.158994 0.0335929 0 103 184
0.475538 0.290229 0.000647882 0 112 104
0.495427 0.313889 0.00154808 0 120 110
0.394911 0.137523 0.0183026 0 88 171
0.434951 0.136745 0.0405169 0 68 173
0.438986 0.169506 0.0289275 0 84 170
0.483952 0.292574 0.00168636 0 119 110
0.491776 0.302142 0.0019346 0 120 107
0.389951 0.13397 0.0145819 0 90 196
0.433133 0.130608 0.0397436 125 95 206
0.439944 0.162947 0.0297996 0 84 175
0.478902 0.283144 0.000338465 0 117 107
0.483542 0.286816 0.00133433 0 115 105
0.490128 0.294648 0.0016402 0 118 107
0.499139 0.305886 0.00183699 0 123 110
0.437482 0.140242 0.0356753 0 76 177
0.439179 0.149727 0.0325776 16 97 195
0.506002 0.310365 0.00116916 0 126 114
0.258124 -0.0133066 -0.000755476 0 134 129
0.442494 0.155037 0.0297431 1 50 172
0.488564 0.280711 0.00160284 0 116 108
0.495103 0.288482 0.00191475 0 121 110
0.499951 0.295294 0.00169653 0 123 111
0.5048 0.302106 0.00147831 0 125 113
0.512836 0.314815 0.000510368 0 128 116
0.265171 -0.0100211 -0.000848501 0 133 127
0.437287 0.127144 0.0364065 89 64 173
0.460077 0.173309 0.0292993 152 36 125
0.480648 0.268693 -0.00020877 0 118 109
0.48526 0.272343 0.000799948 0 118 109
0.272182 -0.00676744 -0.000928404 0 132 126
0.428514 0.122547 0.0310792 98 87 182
0.440516 0.132353 0.0335893 163 38 131
0.44335 0.149039 0.0279712 0 88 178
0.447963 0.158344 0.0265435 0 109 212
0.466673 0.174751 0.0299718 28 65 176
0.493078 0.275373 0.0013305 0 117 108
0.500045 0.282339 0.00223703 0 122 113
0.508009 0.294941 0.00126853 0 124 113
0.511623 0.300018 0.00110587 0 125 113
0.514788 0.305877 0.000353363 0 126 110
0.518406 0.310961 0.000190506 0 129 117
0.225324 -0.0820041 0.00265191 34 153 143
0.22822 -0.0765264 0.00190958 32 151 141
0.269306 -0.01739 -0.000551638 0 138 131
0.442627 0.138797 0.0295908 0 49 147
0.454672 0.162765 0.0259887 0 90 177
0.45975 0.165673 0.0275962 120 75 169
0.477677 0.179592 0.0316852 58 49 153
0.482078 0.25762 0.000275508 0 117 111
0.487386 0.26367 0.000648589 0 120 111
0.499638 0.276657 0.00193312 0 122 113
0.506838 0.286775 0.00160903 0 122 111
0.523963 0.313653 -0.0003857 0 129 114
0.237796 -0.069632 0.00173937 27 150 139
0.27555 -0.0137737 -0.00118778 0 134 124
0.432863 0.118691 0.0304089 0 85 181
0.440298 0.122109 0.0331438 0 73 186
0.443641 0.143676 0.0256263 0 98 185
0.474751 0.174734 0.0297514 94 78 175
0.484673 0.180241 0.0329883 0 83 169
0.480999 0.249589 0.000615732 0 117 111
0.495169 0.266687 0.00120582 0 120 111
0.499237 0.270996 0.00163667 0 119 110
0.513148 0.291949 0.00039661 0 123 112
0.516744 0.297001 0.000234767 0 123 111
0.521095 0.30452 -0.000575029 0 125 113
0.228578 -0.090531 0.00304251 36 154 148
0.231445 -0.0850995 0.00229759 31 153 146
0.235108 -0.0799523 0.0021327 29 152 141
0.243656 -0.0679421 0.00174797 19 148 135
0.247319 -0.0627949 0.00158309 19 148 135
0.281274 -0.01228 -0.00117689 0 133 123
0.443521 0.127297 0.0303193 0 79 179
0.443496 0.132874 0.027857 92 63 161
0.4464 0.149581 0.0221836 0 133 229
0.465124 0.166069 0.0256518 0 95 185
0.471818 0.169862 0.027814 75 119 211
0.490756 0.188054 0.0306567 0 58 164
0.494782 0.261055 0.000914492 0 120 111
0.505279 0.272997 0.00167375 0 120 111
0.510049 0.279699 0.00145904 0 121 112
0.533041 0.31481 -0.000807503 0 129 117
0.225158 -0.10046 0.00286454 30 153 149
0.241409 -0.0762258 0.00151531 26 151 140
0.256026 -0.0556875 0.000857396 4 143 133
0.274298 -0.0300147 3.50002e-05 0 139 130
0.278435 -0.022801 -0.000769005 0 138 129
0.437774 0.114271 0.0303619 67 85 179
0.444499 0.137721 0.0238814 159 62 135
0.450901 0.156517 0.0192687 26 141 225
0.483669 0.240362 0.00111367 0 120 114
0.487952 0.24778 0.000303111 0 118 112
0.49321 0.253767 0.000684257 0 118 112
0.502499 0.264019 0.00150175 0 119 110
0.517061 0.28728 -0.000389286 0 123 112
0.520639 0.292307 -0.000550318 0 124 113
0.523775 0.298113 -0.00130923 0 124 113
0.527357 0.303146 -0.00147047 0 127 115
0.532565 0.309063 -0.00108709 0 126 115
0.23348 -0.0952757 0.00278551 30 153 149
0.237116 -0.0901665 0.00262185 29 152 145
0.248462 -0.0728281 0.00149145 20 147 139
0.264995 -0.0509956 0.00136706 0 142 133
0.273014 -0.0411246 0.0016258 0 140 130
0.459307 0.161942 0.0192689 0 99 166
0.477208 0.173121 0.0246603 216 91 161
0.490394 0.18047 0.0290246 0 98 193
0.50045 0.257477 0.000684796 0 122 112
0.509693 0.26767 0.00150823 0 122 109
0.517083 0.280848 -6.38445e-05 0 124 112
0.539233 0.313366 -0.00168047 0 130 119
0.225655 -0.109973 0.00220152 25 154 154
0.232507 -0.101741 0.00251478 27 154 148
0.245025 -0.0827574 0.0013297 24 151 143
0.256689 -0.0677636 0.00142637 12 146 135
0.260316 -0.062667 0.0012631 6 146 136
0.280401 -0.0358402 0.000980712 0 139 130
0.283764 -0.0283263 -0.000413924 0 137 127
0.287879 -0.0211505 -0.00122076 0 133 126
0.291515 -0.0160413 -0.00138443 0 134 127
0.439254 0.107876 0.0292646 29 79 169
0.443778 0.111443 0.0303043 158 59 138
0.446502 0.125031 0.0258302 28 85 189
0.445926 0.131194 0.0227479 0 75 167
0.483775 0.177403 0.0241526 0 135 211
0.487526 0.232872 0.00160451 0 120 114
0.494849 0.245949 3.16388e-05 0 121 114
0.517116 0.274447 0.000272725 0 124 112
0.523326 0.285962 -0.00125012 0 124 112
0.526445 0.291739 -0.00201214 0 125 113
0.530009 0.296747 -0.00217256 0 124 113
0.535192 0.302634 -0.00178419 0 127 115
0.251274 -0.0790664 0.000739702 22 152 142
0.266076 -0.0610511 0.00132062 3 143 133
0.274054 -0.051233 0.0015851 0 139 129
0.297163 -0.0145898 -0.00132572 0 135 129
0.447546 0.115998 0.028073 0 82 180
0.446409 0.139448 0.0168998 0 72 121
0.46981 0.168153 0.0177173 0 94 110
0.493298 0.190023 0.0216487 0 141 213
0.492604 0.236361 0.000478384 0 121 114
0.503243 0.251309 -4.50932e-07 0 120 114
0.507257 0.255558 0.000442437 0 120 111
0.511263 0.259794 0.00088573 0 118 109
0.515979 0.26642 0.000673455 0 124 113
0.522891 0.280307 -0.00150836 0 123 114
0.540645 0.305252 -0.00230744 0 125 114
0.546563 0.313567 -0.00257379 0 129 117
0.225371 -0.119151 0.000979095 21 154 155
0.236614 -0.106131 0.00172404 25 154 151
0.240223 -0.10106 0.00156159 25 155 148
0.246239 -0.0926075 0.00129084 26 153 145
0.259473 -0.0740129 0.000695188 15 149 138
0.263082 -0.0689416 0.000532737 10 149 136
0.273011 -0.0577683 0.00133684 0 143 134
0.282155 -0.0463094 0.00155082 0 140 131
0.28955 -0.0317524 -0.000658571 0 136 129
0.307103 -0.00847748 -0.000823139 0 136 128
0.443018 0.101947 0.0293388 41 75 170
0.448053 0.107632 0.0297377 3 75 177
0.474244 0.172206 0.0160487 0 103 104
0.492055 0.227783 0.00148592 0 121 114
0.521005 0.269848 -0.000442582 0 124 112
0.530289 0.287058 -0.00273695 0 124 115
0.533835 0.292041 -0.00289656 0 126 114
0.53781 0.296238 -0.00244999 0 128 117
0.234863 -0.112268 0.000884029 23 152 149
0.252887 -0.0869431 7.27875e-05 22 152 142
0.257694 -0.0801899 -0.000143544 15 149 138
0.268826 -0.0673199 0.000610288 5 145 132
0.287823 -0.044786 0.00163755 0 139 130
0.297346 -0.0244757 -0.00192827 0 135 127
0.449489 0.120002 0.0225957 26 79 180
0.447818 0.132898 0.0157691 0 84 117
0.46687 0.166597 0.0117744 0 87 88
0.480341 0.17721 0.0149327 0 108 105
0.488609 0.181897 0.0176978 0 116 112
0.493193 0.220212 0.00306042 0 121 114
0.497102 0.231248 0.000374735 0 122 115
0.500146 0.236912 -0.000389734 0 122 115
0.504851 0.243521 -0.000601468 0 122 112
0.511196 0.251052 -0.000259656 0 121 111
0.52602 0.273265 -0.00155427 0 123 113
0.530284 0.280643 -0.00237363 0 123 114
0.550303 0.30877 -0.00327465 0 128 116
0.227544 -0.12899 0.00155728 13 150 154
0.232724 -0.120328 0.000694761 17 154 154
0.241909 -0.108806 0.000910725 20 153 149
0.249092 -0.0987141 0.000587445 25 155 148
0.267048 -0.0734845 -0.000220754 9 148 135
0.275738 -0.0640397 0.00064681 0 142 131
0.283202 -0.0563192 0.00156964 0 139 131
0.287517 -0.051639 0.00200477 0 140 130
0.305355 -0.0196611 -0.00194491 0 136 128
0.309656 -0.015 -0.00150917 0 135 127
0.451199 0.102281 0.0292527 175 45 119
0.451096 0.110433 0.0254812 19 112 200
0.493133 0.18886 0.0147779 0 115 114
0.497241 0.225058 0.000747007 0 119 112
0.519472 0.256294 -0.000253591 0 122 112
0.525323 0.264514 -0.000516907 0 126 113
0.536463 0.285698 -0.00353579 0 127 118
0.540419 0.289874 -0.0030845 0 128 115
0.547886 0.298982 -0.0027912 0 127 115
0.558443 0.313816 -0.00326638 0 131 119
0.240169 -0.114912 8.18368e-05 18 155 149
0.255711 -0.0930733 -0.000617724 19 153 142
