ply
format ascii 1.0
comment Created by Open3D
element vertex 1209
property double x
property double y
property double z
property uchar red
property uchar green
property uchar blue
end_header
0.55515 0.251631 -0.00132894 0 124 113
0.578618 0.281896 -0.00108788 0 124 114
0.595211 0.306565 -0.00248341 0 129 117
0.226205 -0.196498 0.00421194 0 120 111
0.233754 -0.183189 0.00257102 0 122 113
0.249584 -0.162299 0.00250912 0 131 121
0.259614 -0.149556 0.00270824 0 131 121
0.278506 -0.12977 0.00511095 0 134 112
0.295291 -0.107538 0.00500608 0 124 76
0.310495 -0.0888778 0.00562294 0 125 72
0.318151 -0.0754174 0.00397716 0 124 86
0.359766 -0.0155941 0.00145346 0 127 105
0.37518 -0.00204647 0.00466335 0 104 90
0.454425 0.0309116 0.0388314 33 186 98
0.451588 0.0404397 0.0324531 70 168 60
0.442575 0.0656174 0.014642 1 138 71
0.44786 0.102777 9.0841e-05 0 122 67
0.473773 0.128374 0.00412932 40 144 85
0.488239 0.143294 0.00608062 7 137 88
0.498829 0.156822 0.00625459 70 116 52
0.503062 0.169527 0.00281105 0 118 101
0.550908 0.242159 -0.00194484 0 120 107
0.572099 0.26923 -0.00159741 0 123 112
0.576617 0.275578 -0.00180076 0 122 112
0.588294 0.290634 -0.00167574 0 127 114
0.600336 0.308906 -0.00286836 0 131 119
0.24072 -0.179648 0.00273063 0 123 114
0.246144 -0.173375 0.00313901 0 129 116
0.255336 -0.160459 0.00272528 0 130 123
0.265327 -0.147771 0.00292814 0 135 122
0.269563 -0.143167 0.00338999 0 132 119
0.274579 -0.138816 0.00446929 0 132 118
0.287193 -0.125138 0.0058591 0 131 105
0.293654 -0.117409 0.00622083 56 221 148
0.302371 -0.10651 0.00648106 69 219 138
0.307665 -0.100421 0.00689531 30 197 85
0.311067 -0.0956408 0.00674219 21 192 79
0.381735 -0.00174215 0.00617159 0 99 83
0.446533 -0.00375346 0.0482797 83 198 110
0.451253 0.00152966 0.0487198 30 215 131
0.45061 0.0437828 0.0278677 19 144 74
0.455085 0.106714 0.000260036 0 130 86
0.465207 0.115541 0.0024146 10 139 87
0.470798 0.1207 0.00346797 38 144 87
0.48145 0.134317 0.00364108 42 146 90
0.502671 0.161437 0.003991 0 114 93
0.563757 0.252662 -0.00136857 0 123 112
0.568263 0.258993 -0.00157138 0 124 113
0.586672 0.28351 -0.00174744 0 127 116
0.594922 0.293753 -0.00146622 0 127 114
0.599047 0.300898 -0.00230442 0 127 116
0.235353 -0.192071 0.00280242 0 121 111
0.252235 -0.169697 0.00269704 0 131 121
0.262207 -0.157031 0.00290263 0 136 129
0.282931 -0.135987 0.00589668 0 132 113
0.301115 -0.114475 0.00704158 165 228 129
0.317304 -0.0944206 0.00762189 36 198 87
0.3889 -0.00189867 0.00832616 0 96 77
0.398366 0.00332708 0.0118269 0 101 83
0.455983 0.0250685 0.0380299 50 205 120
0.453727 0.0340107 0.0322412 0 163 93
0.447783 0.0512283 0.020074 14 144 82
0.448145 0.0921108 0.000423881 1 120 65
0.452669 0.0984673 0.000220259 0 123 84
0.461687 0.108447 0.0011233 0 135 89
0.496223 0.146206 0.00480456 0 131 95
0.560662 0.244822 -0.0020226 0 125 113
0.573037 0.262209 -0.00257958 0 123 112
0.583942 0.274839 -0.00176145 0 125 113
0.603775 0.304051 -0.0033086 0 129 117
0.608682 0.313637 -0.00483836 0 131 119
0.233156 -0.201372 0.00339569 0 122 112
0.243443 -0.186918 0.00293267 0 121 112
0.248839 -0.180679 0.00334618 0 124 115
0.259113 -0.166244 0.00288377 0 131 123
0.270184 -0.152032 0.00304187 0 132 122
0.274396 -0.147456 0.00350865 0 135 122
0.279388 -0.143128 0.00459678 0 131 118
0.289317 -0.134549 0.00677545 68 215 151
0.29348 -0.130043 0.00724445 43 217 137
0.298761 -0.123966 0.00766316 48 222 139
0.308529 -0.111584 0.00787988 64 211 124
0.312656 -0.107128 0.00835051 55 206 118
0.323506 -0.0932261 0.00851858 35 206 95
0.360464 -0.0278683 0.000291174 0 121 97
0.44638 -0.0145847 0.0489355 100 184 113
0.452716 -0.00836818 0.0499631 85 215 131
0.456152 -0.00219814 0.0491521 35 218 128
0.456801 0.0175154 0.0399334 120 205 104
0.45214 0.037824 0.0270154 1 156 92
0.446215 0.0577014 0.0134978 15 131 71
0.458723 0.10079 0.000463398 0 131 92
0.468242 0.110137 0.00200411 0 135 92
0.479403 0.123132 0.00281456 31 140 88
0.484404 0.128816 0.00324585 36 141 88
0.488874 0.135097 0.00304466 36 141 91
0.502785 0.1533 0.00307496 0 116 89
0.507512 0.165313 0.00023662 0 120 103
0.570343 0.253595 -0.00259137 0 126 114
0.578595 0.263846 -0.00230638 0 124 113
0.597269 0.287399 -0.00183415 0 130 116
0.602857 0.29525 -0.00208563 0 127 118
0.608491 0.307195 -0.00430836 0 129 115
0.225024 -0.220336 0.00492595 0 132 118
0.25686 -0.175604 0.00349303 0 132 122
0.265151 -0.162615 0.00246153 0 133 125
0.307303 -0.11947 0.00846421 41 208 124
0.318882 -0.10588 0.00925964 38 196 109
0.324094 -0.0998975 0.00968342 38 203 104
0.45527 0.0281299 0.0314288 0 163 83
0.44851 0.0762549 0.0034252 13 122 67
0.457451 0.0941778 0.000389474 0 124 90
0.466411 0.104087 0.00130284 0 131 92
0.475867 0.113353 0.00285223 8 137 88
0.590813 0.274859 -0.00232139 0 125 114
0.595654 0.28032 -0.00188095 0 127 113
0.608669 0.299947 -0.00312506 0 129 117
0.235677 -0.210208 0.00430569 0 120 110
0.239372 -0.203679 0.00347913 0 122 111
0.243079 -0.197133 0.002652 0 121 111
0.251863 -0.186129 0.00291694 0 122 113
0.270831 -0.160814 0.00272343 0 134 124
0.280349 -0.150115 0.00361552 0 133 120
0.289134 -0.143121 0.00586114 51 150 119
0.294843 -0.139111 0.00758497 125 191 90
0.298977 -0.134639 0.00805911 29 214 127
0.305338 -0.127039 0.00843306 49 223 140
0.314671 -0.1166 0.0093335 60 215 132
0.330257 -0.0987122 0.0106127 63 211 114
0.397236 -0.00995107 0.0102391 0 90 72
0.404229 -0.00547457 0.0125653 0 92 75
0.451323 -0.0181995 0.0494006 86 215 144
0.453672 0.0319026 0.026186 0 148 84
0.450941 0.0414375 0.0197064 6 135 83
0.448887 0.0505868 0.0138566 9 124 71
0.456198 0.0849285 0.00164297 0 120 75
0.472927 0.105759 0.00221053 0 131 92
0.482903 0.117102 0.00308201 16 134 89
0.486238 0.121787 0.00293193 25 137 88
0.490683 0.128034 0.00273183 24 133 84
0.494018 0.132719 0.00258175 22 135 89
0.497352 0.137404 0.00243167 11 134 95
0.50872 0.158725 -0.000720992 0 123 101
0.512852 0.168542 -0.00288772 0 121 105
0.586604 0.265482 -0.00290596 0 123 114
0.60553 0.288063 -0.00177709 0 130 120
0.6085 0.293572 -0.00257099 0 129 117
0.614531 0.308732 -0.0061437 0 129 121
0.227917 -0.227274 0.0051841 0 128 118
0.234418 -0.219475 0.00555368 0 126 114
0.249978 -0.193608 0.00286676 0 122 113
0.259543 -0.182838 0.00376064 0 129 118
0.267772 -0.169941 0.00272803 0 131 123
0.278744 -0.155859 0.0028964 0 132 122
0.312714 -0.124141 0.00931361 43 210 130
0.320885 -0.115329 0.0102702 142 208 107
0.326064 -0.109387 0.0106993 48 206 122
0.330125 -0.105015 0.0111787 55 217 134
0.367748 -0.0348062 0.000876933 0 120 92
0.448174 -0.0245471 0.0482451 184 229 158
0.456968 0.0198334 0.0319569 16 188 103
0.452701 0.0351879 0.021554 0 134 81
0.453331 0.072099 0.00364675 2 115 69
0.455528 0.077855 0.0022235 0 120 75
0.461648 0.0877891 0.00128584 0 126 91
0.466658 0.093493 0.00172256 0 129 97
0.471655 0.09918 0.00215981 0 128 95
0.480505 0.108946 0.00308588 0 132 90
0.504389 0.14384 0.00134864 2 134 99
0.507838 0.151353 -0.000130925 0 124 98
0.583914 0.25691 -0.00289287 0 126 114
0.603913 0.281007 -0.00180646 0 128 118
0.226124 -0.234609 0.00514139 0 128 118
0.234595 -0.225368 0.00608829 0 127 117
0.243306 -0.209135 0.00370391 0 123 109
0.256842 -0.190116 0.00309467 0 125 113
0.265551 -0.179211 0.0033668 0 130 119
0.287399 -0.151175 0.00371163 0 130 117
0.299915 -0.141579 0.00713299 49 218 124
0.319289 -0.121014 0.00958155 137 222 124
0.339186 -0.101047 0.0126707 52 205 114
0.455206 0.0260186 0.0253797 9 142 76
0.450975 0.0440404 0.0136161 0 118 73
0.479768 0.101806 0.00368671 0 127 95
0.492433 0.118269 0.00378078 3 126 84
0.49964 0.129726 0.00279232 1 128 90
0.513553 0.16259 -0.00447504 0 119 102
0.59271 0.263158 -0.00272491 0 126 116
0.596031 0.267824 -0.00287439 0 127 117
0.600832 0.273238 -0.00242635 0 124 115
0.233932 -0.231097 0.00600632 0 129 118
0.243171 -0.216788 0.00492447 0 121 111
0.249644 -0.203706 0.00263495 0 122 109
0.254978 -0.19754 0.0030609 0 121 111
0.277478 -0.165926 0.0020482 0 134 125
0.280853 -0.161184 0.0018963 0 135 124
0.29376 -0.149692 0.00464557 0 125 108
0.309534 -0.135501 0.0079319 40 223 133
0.313621 -0.131087 0.00841397 39 207 120
0.332466 -0.11258 0.011562 2 192 107
0.337236 -0.108536 0.0126794 11 197 117
0.391766 -0.0226176 0.00556278 2 93 72
0.460243 0.00583844 0.0364489 21 195 112
0.451693 0.0509542 0.00819388 0 114 70
0.46141 0.0752368 0.00242815 0 125 91
0.466937 0.0830031 0.00217937 0 129 103
0.476866 0.0942967 0.00306454 0 125 95
0.488376 0.106482 0.00454465 0 127 90
0.50553 0.134571 0.0017744 0 127 96
0.513761 0.156765 -0.00392437 0 116 98
0.587824 0.251527 -0.00259561 0 124 113
0.591136 0.256181 -0.00274468 0 124 113
0.612827 0.284001 -0.00238887 0 125 113
0.616527 0.291857 -0.00388752 0 125 116
0.619214 0.302275 -0.00733864 0 131 121
0.227075 -0.242866 0.00487491 0 132 121
0.2313 -0.238255 0.00535268 0 132 120
0.241957 -0.225934 0.00620902 0 127 116
0.26181 -0.194062 0.00331152 0 127 116
0.265989 -0.189515 0.00379138 0 131 121
0.272703 -0.180082 0.00348919 0 132 122
0.276376 -0.173595 0.0026559 0 132 122
0.28646 -0.159426 0.00220201 0 136 124
0.291391 -0.15515 0.00331601 0 135 124
0.300087 -0.148234 0.00559651 63 196 169
0.320184 -0.127951 0.00869978 65 198 100
0.324995 -0.123843 0.00981923 66 227 149
0.329787 -0.119761 0.0109395 17 195 114
0.352755 -0.0994215 0.0159175 115 203 88
0.370359 -0.0813165 0.018465 106 208 118
0.454259 -0.0310448 0.0487554 65 209 139
0.457636 0.0147989 0.0278962 0 158 82
0.452577 0.035531 0.0140965 0 112 74
0.459661 0.0666969 0.00309003 0 119 81
0.476166 0.087236 0.00368308 0 126 100
0.483828 0.0953491 0.00467422 0 119 91
0.505727 0.126119 0.00368856 0 122 92
0.512869 0.149411 -0.00331266 0 120 98
0.598382 0.261608 -0.00315368 0 127 115
0.604257 0.268537 -0.00275014 0 127 115
0.608655 0.274716 -0.00294809 0 130 118
0.620464 0.296612 -0.00615151 0 125 115
0.251028 -0.213991 0.00369655 0 120 110
0.259967 -0.20143 0.00329417 0 124 113
0.272766 -0.186093 0.00405795 0 132 121
0.284552 -0.166888 0.00218764 0 135 125
0.30859 -0.143696 0.00646495 79 229 151
0.338837 -0.115749 0.0124725 30 205 115
0.342839 -0.111449 0.0129623 0 200 115
0.347563 -0.107457 0.0140895 46 213 133
0.365205 -0.0932515 0.0186546 136 210 116
0.460384 -0.0269868 0.0485358 58 244 153
0.463276 -0.016309 0.0450561 76 243 156
0.458872 0.00925168 0.0291767 77 172 71
0.455287 0.0214123 0.0206293 0 130 89
0.453849 0.0273297 0.0166745 0 117 80
0.468905 0.0736194 0.0032687 0 132 105
0.482586 0.0888733 0.00466265 0 118 93
0.51287 0.138038 -4.99136e-05 0 120 96
0.545818 0.190947 -0.00488241 74 154 146
0.551569 0.195058 -0.00313154 12 111 98
0.591708 0.246165 -0.00225856 0 127 115
0.594997 0.250786 -0.00240661 0 126 115
0.598287 0.255408 -0.00255467 0 125 114
0.614734 0.278517 -0.00329492 0 125 116
0.619119 0.284679 -0.00349233 0 126 114
0.226938 -0.252607 0.00468828 0 135 124
0.237577 -0.240298 0.00555307 0 134 121
0.242879 -0.234169 0.00598628 0 132 120
0.249804 -0.22312 0.00500278 0 124 115
0.256196 -0.210178 0.00269958 0 123 114
0.266766 -0.197966 0.00356749 0 131 120
0.279813 -0.180954 0.00365206 0 132 122
0.296486 -0.157529 0.00290167 0 137 124
0.320333 -0.134582 0.007203 9 219 134
0.335439 -0.122597 0.0112259 57 198 104
0.373973 -0.0895753 0.0202409 96 207 120
0.457185 -0.0373383 0.0494154 84 211 124
0.45649 0.0158052 0.0219016 23 129 72
0.458432 0.0528554 0.00434643 0 112 76
0.466607 0.0656609 0.00330668 0 131 100
0.47918 0.0793668 0.00475625 0 127 104
0.488959 0.090468 0.00565976 4 95 56
0.498656 0.0988116 0.00791068 0 106 62
0.509455 0.113985 0.00742461 0 117 88
0.514122 0.131102 0.00183989 0 117 91
0.606199 0.263117 -0.0036481 0 126 114
0.234976 -0.247388 0.00491546 0 135 122
0.254955 -0.219316 0.00401619 0 125 115
0.263008 -0.206684 0.00298 0 124 113
0.27353 -0.194534 0.00385395 0 134 122
0.278773 -0.188485 0.00429172 0 133 122
0.287144 -0.174088 0.00256739 0 135 125
0.291906 -0.166081 0.00167931 0 135 125
0.306113 -0.151387 0.00373491 0 134 117
0.392986 -0.0372282 0.0038674 2 96 57
0.45473 -0.0439933 0.0489257 33 191 107
0.487188 0.0819586 0.00636511 0 110 68
0.518103 0.141202 -0.00311151 0 114 94
0.554165 0.189237 -0.00338713 57 170 150
0.603904 0.253854 -0.00293075 0 126 115
0.612266 0.266921 -0.00398087 0 126 113
0.621001 0.279195 -0.00437406 0 125 114
0.624338 0.287835 -0.00654556 0 126 114
0.225282 -0.267066 0.00595233 0 136 125
0.230809 -0.2593 0.00570355 0 137 126
0.244075 -0.240661 0.00510648 0 134 122
0.251556 -0.231464 0.00544544 0 125 113
0.262312 -0.212408 0.00293425 0 127 118
0.268677 -0.204778 0.00332344 0 131 120
0.286883 -0.181827 0.00385541 0 132 123
0.318631 -0.142476 0.00512922 36 221 134
0.33191 -0.131704 0.00858568 18 208 123
0.345046 -0.121134 0.0120487 59 196 106
0.370884 -0.100601 0.018994 106 217 133
0.389189 -0.0853962 0.0235757 62 201 124
0.461099 -0.0421872 0.0500697 62 212 128
0.461508 0.000444243 0.0284291 0 182 108
0.458029 0.0100146 0.0211529 0 126 83
0.455837 0.0187624 0.0151704 0 107 79
0.458803 0.0452737 0.00355007 0 109 77
0.469677 0.0605529 0.00306062 0 127 101
0.484901 0.0740564 0.0064296 58 132 76
0.500469 0.0893599 0.00910734 86 93 41
0.519319 0.134245 -0.00120079 0 112 90
0.65973 -0.00361682 0.164782 172 204 196
0.663089 0.00373113 0.163279 71 147 140
0.596206 0.237019 -0.00195866 0 127 116
0.601636 0.244649 -0.00220305 0 126 115
0.609591 0.258454 -0.00391251 0 127 116
0.618303 0.270695 -0.00430461 0 129 116
0.239042 -0.25246 0.00526746 0 136 125
0.243452 -0.246264 0.00506898 0 136 125
0.259726 -0.22471 0.00501415 0 128 118
0.276526 -0.199794 0.00358035 0 133 121
0.280644 -0.195318 0.00407264 0 133 122
0.294478 -0.173259 0.00209474 0 134 124
0.299997 -0.165503 0.00184629 0 137 127
0.30519 -0.159519 0.00229021 0 138 125
0.314439 -0.149146 0.00322918 0 141 125
0.328849 -0.136768 0.00664633 121 222 123
0.339109 -0.128909 0.00957265 7 203 109
0.352162 -0.118438 0.013051 7 202 115
0.379596 -0.0969408 0.0206253 98 214 136
0.457684 -0.050171 0.0496366 126 192 91
0.463371 -0.00546068 0.0304072 0 172 102
0.457026 0.0131654 0.0164626 0 108 81
0.465763 0.0516704 0.00251683 0 123 94
0.477748 0.0632634 0.00468793 0 123 97
0.482084 0.0667332 0.00584799 0 118 89
0.495519 0.0790534 0.0086314 100 89 12
0.520551 0.12734 0.000728472 0 108 88
0.557629 0.182059 -0.00229562 80 171 156
0.563929 0.188288 -0.00122392 0 125 115
0.609475 0.252283 -0.00327392 0 126 116
0.626883 0.280677 -0.00609034 0 130 114
0.228123 -0.275137 0.00706026 0 136 124
0.232509 -0.268974 0.00686285 0 137 125
0.250294 -0.242677 0.00538282 0 134 123
0.254686 -0.236506 0.00518515 0 128 117
0.265931 -0.219397 0.00399946 0 133 121
0.270603 -0.211524 0.00310961 0 130 118
0.286526 -0.191768 0.00375202 0 135 123
0.294212 -0.180969 0.0034061 0 136 127
0.371712 -0.107409 0.0182659 40 191 107
0.406597 -0.0767136 0.0262095 136 200 106
0.458179 0.0337113 0.00418075 0 105 79
0.489517 0.0672737 0.00820669 173 172 34
0.502305 0.0800082 0.0103493 84 89 0
0.50706 0.0827626 0.012174 49 56 14
0.618377 0.261416 -0.00438875 0 130 116
0.625611 0.27289 -0.00539393 0 125 113
0.631108 0.284539 -0.00768002 0 129 114
0.226283 -0.283728 0.00777837 0 136 124
0.238732 -0.263624 0.00585508 0 138 125
0.246631 -0.25122 0.00481806 0 136 126
0.261726 -0.231316 0.00482014 0 132 120
0.278428 -0.206544 0.00338689 0 134 123
0.283625 -0.200547 0.00383448 0 133 121
0.293184 -0.188422 0.00408572 0 135 125
0.302864 -0.170904 0.00160559 0 139 127
0.308032 -0.164948 0.00205443 0 138 127
0.314284 -0.15747 0.00245456 0 139 125
0.323466 -0.147179 0.00340422 0 144 126
0.328251 -0.143068 0.00455183 0 154 133
0.347608 -0.128928 0.0104955 15 210 120
0.389506 -0.0961734 0.0222394 40 197 120
0.39749 -0.0901776 0.024606 65 195 114
0.454808 -0.0605655 0.0486041 233 173 26
0.458558 0.00737769 0.015724 0 105 82
0.474806 0.0537102 0.00272593 0 129 103
0.481326 0.0576484 0.00515842 0 114 86
0.486184 0.0605578 0.00698417 0 102 70
0.500056 0.0722138 0.0104488 120 109 0
0.51946 0.0851142 0.0170718 0 105 63
0.525296 0.0998433 0.0134016 15 113 68
0.658517 -0.0106788 0.162784 175 160 153
0.565825 0.180292 -0.000689305 0 119 110
0.606047 0.235501 -0.0018182 0 127 115
0.610349 0.241545 -0.00201181 0 124 115
0.618237 0.255239 -0.00372979 0 126 112
0.232092 -0.281554 0.00816378 0 136 126
0.236442 -0.275442 0.007968 0 141 128
0.245807 -0.258375 0.00549624 0 138 126
0.260002 -0.23843 0.00485732 0 131 120
0.268997 -0.224489 0.00376906 0 134 122
0.273371 -0.218343 0.0035722 0 134 122
0.289485 -0.197005 0.00353033 0 134 124
0.301801 -0.178398 0.0022926 0 135 124
0.321913 -0.152744 0.00275415 0 139 126
0.33547 -0.140211 0.00556106 0 145 110
0.340951 -0.136418 0.00736463 22 190 100
0.36294 -0.119854 0.0138925 22 211 130
0.407687 -0.085644 0.0269136 86 206 122
0.4186 -0.0755226 0.0291561 101 203 116
0.461802 -0.0591182 0.0504478 60 201 123
0.468323 -0.0473507 0.0487875 87 235 141
0.468281 -0.0265636 0.0378547 92 204 113
0.467026 -0.0192068 0.0331273 0 182 105
0.47308 0.0479284 0.00210101 0 130 109
0.494117 0.0605487 0.0100386 153 164 28
0.499417 0.0653899 0.0111669 82 79 0
0.506796 0.0731519 0.0122016 136 149 66
0.525531 0.0864475 0.0181925 0 111 78
0.662566 0.00017674 0.158276 83 111 104
0.56421 0.170759 0.000733012 113 162 151
0.571706 0.181292 0.000395603 0 123 112
0.618107 0.249095 -0.0030597 0 125 113
0.629235 0.267335 -0.00492739 0 127 113
0.632531 0.275876 -0.00712603 0 128 115
0.241538 -0.271654 0.00702641 0 136 125
0.245011 -0.265474 0.00618474 0 138 127
0.252852 -0.253156 0.00514643 0 135 125
0.256356 -0.246934 0.00430341 0 128 119
0.279526 -0.213078 0.00257518 0 132 123
0.284707 -0.207098 0.00302733 0 133 123
0.314149 -0.16573 0.00170216 0 138 128
0.384035 -0.107836 0.0198024 181 208 96
0.40276 -0.0932276 0.0251278 160 216 117
0.459414 -0.0656254 0.0499917 202 210 113
0.467807 -0.0551316 0.0502992 78 233 150
0.463909 0.0290916 0.00318575 0 106 81
0.470285 0.0406503 0.00152806 0 126 104
0.488117 0.0540055 0.00689357 0 102 72
0.506155 0.0663488 0.0129352 88 71 5
0.514518 0.0728992 0.0153002 134 131 22
0.526403 0.0804995 0.0195627 0 105 77
0.605534 0.224183 -0.00113266 0 125 113
0.610179 0.229409 -0.000656343 0 126 114
0.614078 0.236187 -0.00151719 0 126 114
0.625123 0.254307 -0.00338502 0 126 115
0.629062 0.261141 -0.00424765 0 127 116
0.237354 -0.28479 0.00856817 0 137 125
0.266629 -0.23717 0.00381413 0 133 123
0.270979 -0.231059 0.00361835 0 135 124
0.276416 -0.223419 0.00337363 0 135 124
0.29136 -0.203719 0.00338827 0 133 123
0.297876 -0.194564 0.003095 0 136 125
0.305478 -0.183883 0.00275286 0 136 126
0.309039 -0.177581 0.00190528 0 139 129
0.313389 -0.17147 0.0017095 0 141 129
0.319595 -0.164048 0.00211746 0 139 128
0.329039 -0.152075 0.00237966 0 142 128
0.369472 -0.121207 0.0143053 36 196 102
0.408464 -0.0923636 0.0262959 91 207 131
0.423393 -0.080468 0.0304349 93 208 125
0.482081 0.047393 0.00373867 0 125 103
0.501332 0.0562807 0.0124941 105 97 6
0.522158 0.0725719 0.0184295 45 123 63
0.658478 -0.0173697 0.161433 159 194 184
0.6607 -0.00646479 0.157209 115 94 93
0.66465 0.00427324 0.154282 78 155 138
0.567633 0.163707 0.00194987 84 161 144
0.570388 0.168875 0.00113859 0 117 109
0.574642 0.174852 0.000947136 0 119 109
0.604417 0.216688 -0.000393035 0 126 111
0.621073 0.241388 -0.00182999 0 126 114
0.24546 -0.278045 0.00819378 0 136 124
0.248896 -0.271924 0.00734995 0 137 124
0.25364 -0.26267 0.00575798 0 138 127
0.258191 -0.25498 0.00486393 0 135 123
0.262523 -0.248894 0.00466896 0 131 118
0.281456 -0.219703 0.00243838 0 135 124
0.2858 -0.2136 0.00224287 0 134 124
0.303674 -0.191074 0.00281676 0 134 128
0.325333 -0.160642 0.00184192 0 141 127
0.338405 -0.146158 0.00332119 0 144 129
0.343127 -0.142112 0.00448708 0 148 132
0.35505 -0.133125 0.00808569 29 193 123
0.380653 -0.116566 0.0172714 17 203 123
0.399421 -0.101844 0.0226296 35 204 130
0.458534 -0.0731467 0.0489157 113 208 123
0.464326 -0.0688916 0.0507226 109 225 149
0.469139 -0.0621278 0.0505059 85 245 154
0.46769 -0.0175702 0.0257597 62 189 99
0.472856 0.0336939 0.0020941 0 126 106
0.478196 0.0411963 0.00185377 0 128 107
0.494851 0.0503612 0.00868542 0 101 76
0.515838 0.0643176 0.0160113 134 145 29
0.53023 0.0741846 0.0208772 0 109 80
0.534399 0.087808 0.0165543 0 108 86
0.611791 0.22114 -2.39722e-05 0 126 114
0.616026 0.227091 -0.000214614 0 124 113
0.6199 0.233829 -0.00107818 0 124 113
0.626621 0.24586 -0.00275911 0 128 114
0.63266 0.255639 -0.0037201 0 127 115
0.637984 0.26312 -0.00395975 0 130 118
0.254812 -0.268247 0.00707988 0 135 123
0.279464 -0.228445 0.00320578 0 133 121
0.311907 -0.18286 0.00174554 0 138 127
0.316233 -0.176782 0.00155084 0 140 130
0.322409 -0.169396 0.00196404 0 141 128
0.331805 -0.157485 0.00223225 0 141 129
0.349511 -0.139065 0.00489101 0 144 128
0.362821 -0.130694 0.00982104 147 211 105
0.405145 -0.10093 0.0238123 47 212 139
0.413675 -0.0954016 0.026884 150 198 94
0.419769 -0.0907129 0.0286831 78 211 133
0.472403 -0.029674 0.0332255 100 197 99
0.466982 0.0195319 0.00305942 0 105 83
0.470665 0.0259983 0.00220252 0 114 90
0.489927 0.0453135 0.00548238 0 104 81
0.507947 0.0525537 0.0143472 149 150 56
0.522946 0.0645878 0.0185101 92 116 96
0.575454 0.165485 0.00163284 0 114 107
0.586013 0.180321 0.00115759 0 121 108
0.590889 0.188463 0.000247007 0 119 109
0.605693 0.209263 -0.000419293 0 125 110
0.632498 0.249509 -0.00300802 0 124 112
0.247645 -0.284233 0.00809957 0 138 127
0.263287 -0.258389 0.00531632 0 130 120
0.268894 -0.249222 0.0043709 0 134 124
0.272362 -0.243061 0.00352174 0 136 124
0.276676 -0.237 0.00332758 0 134 122
0.297166 -0.20821 0.00240533 0 137 127
0.301201 -0.203828 0.00291675 0 135 122
0.311971 -0.188697 0.00243203 0 137 127
0.39332 -0.113053 0.0195626 60 231 153
0.476412 -0.049134 0.0442385 9 201 103
0.472264 -0.0253264 0.0284846 32 122 70
0.466583 -0.0101145 0.0162651 0 94 73
0.465042 0.00704981 0.00593841 0 100 82
0.475926 0.0287849 0.00198321 0 128 107
0.485527 0.0396972 0.00293725 0 124 104
0.497818 0.0453708 0.00862162 0 98 70
0.503643 0.0471117 0.0118248 131 149 40
0.521294 0.0590266 0.017961 97 128 106
0.528963 0.0659364 0.0196951 0 112 84
0.536611 0.0779711 0.0186577 0 102 79
0.660637 -0.0132082 0.155848 162 131 134
0.583551 0.172273 0.00129754 0 116 108
0.603168 0.201125 -0.000278536 0 123 112
0.614457 0.21441 0.000599522 0 126 111
0.622508 0.22701 -0.000455895 0 126 113
0.628123 0.237476 -0.00209476 0 127 112
0.632346 0.24341 -0.00228486 0 126 114
0.639737 0.253795 -0.00261754 0 126 114
0.644619 0.258077 -0.00145109 0 131 116
0.256752 -0.276048 0.00770328 0 135 125
0.261229 -0.268471 0.00680677 0 136 124
0.288149 -0.224219 0.00212015 0 138 127
0.295687 -0.213627 0.00178085 0 137 127
0.310191 -0.19582 0.00251808 0 137 127
0.319079 -0.182045 0.00142298 0 140 130
0.324152 -0.176204 0.00188971 0 140 130
0.329521 -0.168659 0.00164803 0 140 128
0.334574 -0.162846 0.00211559 0 142 130
0.339936 -0.155312 0.00187425 0 142 129
0.36005 -0.13605 0.0058339 0 137 124
0.372179 -0.129295 0.010848 168 223 111
0.411397 -0.102476 0.0243728 20 203 123
0.444503 -0.0829593 0.0374777 71 204 128
0.463028 -0.0800734 0.0491539 134 247 169
0.469735 -0.0745071 0.050937 85 252 168
0.476155 -0.0590576 0.0471731 40 228 124
0.477398 -0.0354542 0.0353021 38 185 98
0.469611 0.0127459 0.00368268 0 104 82
0.48278 0.0325353 0.00239495 0 129 109
0.527317 0.0603992 0.0191553 40 95 82
0.535442 0.0692432 0.0201796 0 106 77
0.578382 0.159148 0.00226194 0 110 106
0.600663 0.193025 -0.00013086 0 117 108
0.612979 0.207759 0.00070476 0 123 112
0.621366 0.219543 0.000327263 0 122 111
0.638175 0.247017 -0.00251424 0 123 114
0.254104 -0.284368 0.00784386 0 138 124
0.272018 -0.254066 0.00424982 0 138 124
0.282728 -0.239019 0.0037678 0 137 125
0.287259 -0.231369 0.00286694 0 136 126
0.307359 -0.204411 0.00265918 0 139 127
0.319139 -0.187859 0.00212896 0 140 128
0.3506 -0.146219 0.00210675 0 146 131
0.38927 -0.121391 0.0163956 112 207 101
0.441095 -0.0870595 0.0349709 68 193 120
0.480783 -0.0441229 0.0401539 67 189 95
0.47169 -0.0184143 0.0196553 0 86 67
0.47955 0.0234178 0.00257517 0 127 106
0.518008 0.0479483 0.0168736 199 212 199
0.526195 0.0543203 0.0192928 52 80 73
0.584334 0.162948 0.00204054 0 111 105
0.588516 0.168823 0.00185233 0 115 107
0.593338 0.176882 0.00093831 0 116 108
0.59962 0.185708 0.000655592 0 117 108
0.611135 0.201888 0.000137277 0 119 109
0.629979 0.228365 -0.000710876 0 122 111
0.65084 0.253827 0.000441008 0 124 113
0.264223 -0.274738 0.00741745 0 141 130
0.26995 -0.264133 0.00576202 0 134 123
0.277854 -0.250467 0.00400853 0 136 124
0.29545 -0.223183 0.00181883 0 140 128
0.303749 -0.212802 0.00214415 0 142 131
0.312819 -0.202619 0.00313365 0 140 128
0.319217 -0.193628 0.00284566 0 137 125
0.32591 -0.182945 0.00184555 0 140 130
0.331249 -0.175443 0.00160522 0 142 131
0.337346 -0.168156 0.00202969 0 142 132
0.348011 -0.153172 0.00154971 0 144 131
0.358733 -0.141946 0.00316364 0 144 131
0.383913 -0.127047 0.0132121 19 207 138
0.403989 -0.112918 0.0199959 71 201 117
0.424344 -0.0996779 0.0274661 247 157 12
0.462487 -0.0857638 0.0474139 90 223 150
0.47226 -0.0144338 0.0155254 0 89 70
0.476915 0.0138669 0.00343525 0 125 103
0.491614 0.0345192 0.00277368 0 126 106
0.499569 0.0392972 0.0059099 0 98 83
0.664695 -0.00132612 0.147335 151 203 190
0.581299 0.152853 0.00293016 0 104 100
0.608636 0.193822 0.000302049 0 118 106
0.621893 0.20989 0.00110304 0 126 116
0.627782 0.219444 0.000139137 0 122 112
0.637182 0.236491 -0.00238052 0 125 116
0.641705 0.241566 -0.0018852 0 125 113
0.647587 0.247272 -0.000752282 0 126 116
0.26053 -0.284505 0.00762052 0 137 123
0.285795 -0.243897 0.00368019 0 140 127
0.310288 -0.209483 0.00257778 0 141 131
0.345114 -0.161827 0.00171107 0 143 130
0.356482 -0.147132 0.0019002 0 144 131
0.365027 -0.138957 0.00361797 0 143 130
0.414783 -0.108637 0.023103 54 221 144
0.470051 -0.0846209 0.0500486 224 230 128
0.485789 -0.0395201 0.036726 12 170 89
0.486795 0.0244709 0.00234204 0 128 108
0.508927 0.0402428 0.00975538 59 142 114
0.526494 0.0470467 0.0187757 149 157 154
0.589288 0.15954 0.00263446 0 111 102
0.59511 0.168998 0.00167161 0 114 101
0.606155 0.185794 0.00047366 0 116 108
0.620424 0.203288 0.00123304 0 120 110
0.26637 -0.280864 0.00740217 0 137 123
0.270594 -0.27493 0.00721206 0 132 120
0.279678 -0.258343 0.00469504 0 141 130
0.28498 -0.250893 0.0044564 0 137 125
0.291578 -0.240349 0.00345671 0 139 125
0.296069 -0.232764 0.00255183 0 141 132
0.302706 -0.222165 0.00155042 0 139 129
0.322095 -0.198745 0.00278592 0 141 128
0.338302 -0.174699 0.0013537 0 144 133
0.343303 -0.168947 0.00183136 0 144 133
0.354967 -0.152557 0.00130635 0 147 134
0.372724 -0.136528 0.00542617 0 144 132
0.402722 -0.118589 0.0174276 95 207 113
0.477429 0.00421732 0.00422708 0 122 102
0.484163 0.0149534 0.00322127 0 128 107
0.498276 0.0335095 0.00328874 0 128 108
0.587921 0.153094 0.00276751 0 106 98
0.601617 0.174887 0.000745616 0 116 105
0.618595 0.197468 0.000684168 0 119 109
0.628959 0.212029 0.000217704 0 124 113
0.633791 0.220094 -0.000702517 0 124 113
0.654473 0.24533 0.000474738 0 124 111
0.277654 -0.268293 0.00624191 0 138 127
0.290755 -0.247342 0.00424294 0 138 125
0.301007 -0.229123 0.00166752 0 141 130
0.319305 -0.207228 0.00295793 0 140 130
0.327764 -0.195342 0.00257719 0 142 129
0.331994 -0.189399 0.00238682 0 144 134
0.335458 -0.183261 0.00152626 0 142 132
0.3524 -0.159456 0.000763697 0 143 131
0.364442 -0.145079 0.00163098 0 147 133
0.382116 -0.13296 0.007882 0 119 107
0.398137 -0.124435 0.0149121 46 227 154
0.413529 -0.11425 0.0205611 39 200 124
0.477722 -0.0799971 0.0486765 202 243 117
0.49288 -0.0447128 0.0402431 25 186 108
0.495024 0.0269541 0.00209545 0 130 110
0.506042 0.0360777 0.0051228 0 101 82
0.523711 0.0405619 0.015602 160 173 160
0.534843 0.051118 0.0179195 0 134 112
0.613668 0.1873 0.000278608 0 115 107
0.640234 0.225898 -0.00162176 0 126 111
0.64438 0.231723 -0.00180834 0 125 115
0.648854 0.236738 -0.00130507 0 126 114
0.286801 -0.258717 0.00518166 0 138 126
0.299905 -0.237768 0.00317868 0 143 133
0.312833 -0.218335 0.00189023 0 140 129
0.3168 -0.21403 0.00241827 0 142 132
0.326811 -0.2025 0.00338084 0 139 129
0.35028 -0.168257 0.00161791 0 144 133
0.362933 -0.150479 0.00104842 0 144 131
0.421532 -0.112542 0.0231413 11 197 117
0.466866 -0.0945118 0.0465377 199 220 119
0.499341 -0.0412716 0.0408366 29 168 88
0.487202 0.0101721 0.00322761 0 130 109
0.490798 0.0164933 0.00235918 0 128 109
0.517395 0.0373741 0.0103475 29 112 105
0.576463 0.0759689 0.0324193 38 133 202
0.590786 0.146834 0.00351141 0 104 92
0.598601 0.159084 0.00245308 0 108 98
0.603349 0.167024 0.0015328 0 111 99
0.610176 0.177884 0.000518958 0 114 106
0.627047 0.200321 0.000466154 0 120 107
0.274329 -0.283309 0.00722383 0 137 124
0.279564 -0.275954 0.00698823 0 137 124
0.286048 -0.265578 0.00598788 0 141 130
0.295703 -0.250746 0.00484482 0 140 127
0.300952 -0.243371 0.00460854 0 139 127
0.308226 -0.228089 0.00144714 0 142 130
0.339033 -0.1886 0.00218609 0 141 129
0.342478 -0.182493 0.0013225 0 143 131
0.347444 -0.176782 0.00180751 0 143 132
0.372345 -0.14306 0.00139522 0 147 134
0.377639 -0.139418 0.00328248 0 144 131
0.408181 -0.121818 0.016078 37 183 103
0.462256 -0.0977323 0.0426931 135 216 139
0.47657 -0.0890107 0.0484255 57 228 147
0.484432 -0.0729016 0.0452375 7 210 125
0.504758 0.0303317 0.00252052 0 130 111
0.532101 0.042171 0.0161686 0 59 47
0.571068 0.0703425 0.0292935 48 181 212
0.582553 0.0788857 0.0330276 99 159 233
0.589928 0.133548 0.00789772 0 98 88
0.636545 0.210438 -0.000577068 0 124 113
0.650949 0.230677 -0.00122538 0 125 110
0.285323 -0.272382 0.00680446 0 141 129
0.292837 -0.260561 0.00575581 0 138 126
0.307364 -0.235098 0.00226018 0 142 131
0.323664 -0.214722 0.00294741 0 142 132
0.328642 -0.208991 0.0034338 0 143 130
0.332829 -0.203107 0.00324533 0 142 132
0.336245 -0.197045 0.00238117 0 142 131
0.35752 -0.165889 0.000713133 0 146 133
0.362037 -0.15828 -0.000200581 0 148 136
0.369069 -0.149662 0.00019333 0 147 134
0.429345 -0.112958 0.0244771 66 196 112
0.497481 -0.0601587 0.0455655 17 189 104
0.487004 -0.00795044 0.00838357 4 151 94
0.493327 0.00977329 0.00312591 0 129 111
0.498424 0.0194614 0.00147557 0 129 109
0.510368 0.032455 0.00306931 0 127 109
0.515569 0.0347103 0.00567703 0 67 58
0.537997 0.0510701 0.0131928 0 131 107
0.590387 0.0956358 0.027175 185 94 150
0.610446 0.169282 0.000696187 0 113 103
0.61725 0.180105 -0.000320487 0 116 105
0.622757 0.186579 0.000142109 0 116 105
0.635067 0.203875 -0.000411969 0 124 110
0.641907 0.214749 -0.00143027 0 124 111
0.649429 0.224055 -0.00105839 0 123 113
0.658273 0.233956 -3.55414e-05 0 125 111
0.303767 -0.249716 0.00534506 0 142 129
0.315399 -0.227073 0.00125967 0 143 131
0.320393 -0.221315 0.00174724 0 143 133
0.355435 -0.174599 0.0015948 0 144 131
0.414739 -0.121511 0.0160225 0 92 73
0.423531 -0.117979 0.0206134 36 203 126
0.466226 -0.102087 0.0436247 94 233 156
0.504799 -0.0554502 0.0461628 32 190 109
0.508899 -0.0484293 0.0452659 38 184 107
0.512074 -0.0427083 0.0444106 13 174 96
0.588994 0.0817479 0.0316877 81 124 201
0.593288 0.100382 0.0243707 145 82 160
0.593513 0.105737 0.0215111 160 66 139
0.601464 0.147148 0.00405628 0 104 91
0.605133 0.153563 0.00317877 0 107 94
0.615832 0.173636 -0.000152284 0 114 103
0.285355 -0.281343 0.00697703 0 140 126
0.291582 -0.272593 0.00669674 0 141 129
0.295733 -0.26676 0.00650989 0 139 129
0.302999 -0.256552 0.00618289 0 144 130
0.31071 -0.243202 0.00440716 0 143 131
0.314539 -0.234051 0.00209195 0 141 128
0.34353 -0.194575 0.00150141 0 143 133
0.347705 -0.188708 0.00131347 0 144 131
0.375172 -0.148859 -0.000637071 0 146 134
0.379735 -0.144961 0.000586099 0 145 133
0.474694 -0.099534 0.0463132 95 250 165
0.499335 0.0117706 0.00163173 0 127 109
0.505999 0.0223909 0.000617495 0 130 114
0.595755 0.114561 0.0158638 146 66 150
0.600938 0.139444 0.00563031 0 102 89
0.610103 0.158606 0.00164631 0 110 95
0.631791 0.191593 -0.000758471 0 118 104
0.635876 0.197333 -0.000942353 0 123 109
0.657645 0.226662 -0.00120786 0 124 113
0.664698 0.232801 0.000617611 0 124 110
0.290891 -0.279303 0.00754262 0 141 128
0.301426 -0.263247 0.00635225 0 139 131
0.315557 -0.239629 0.00356751 0 145 133
0.329321 -0.219036 0.00223175 0 142 130
0.337384 -0.20896 0.0025851 0 143 132
0.341542 -0.203119 0.00239797 0 142 134
0.357133 -0.181213 0.00169625 0 145 134
0.362629 -0.172236 0.00073258 0 147 136
0.36637 -0.164472 -0.000868213 0 148 135
0.372633 -0.155672 -0.00115012 0 148 136
0.471123 -0.105082 0.0445532 77 227 153
0.517419 -0.0488137 0.0474831 29 186 112
0.521705 -0.0440462 0.0480064 97 184 96
0.498892 0.00291647 0.00391055 0 128 90
0.512089 0.026476 0.000451619 0 130 114
0.518297 0.0301827 0.00303711 0 122 108
0.599335 0.121469 0.0122819 98 79 111
0.600669 0.128361 0.00935688 25 91 90
0.608903 0.14871 0.00397266 0 103 90
0.624518 0.179429 -0.00174381 0 115 102
0.642903 0.20526 -0.00257127 0 126 112
0.650714 0.213728 -0.00149038 0 126 114
0.297618 -0.274323 0.00734812 0 143 131
0.313073 -0.252607 0.00665248 0 142 132
0.321669 -0.233022 0.00195663 0 141 131
0.326866 -0.22572 0.00172272 0 142 130
0.335705 -0.215803 0.00276118 0 144 133
0.354643 -0.187942 0.00119065 0 145 134
0.466892 -0.110313 0.0421009 88 221 145
0.503712 -0.0685894 0.0461889 12 198 118
0.517197 -0.0546476 0.0484546 95 183 100
0.504774 0.0142411 -0.000539513 0 129 111
0.537037 0.0357962 0.0116535 0 79 61
0.57623 0.0633358 0.025689 172 214 119
0.598122 0.0978497 0.0225491 0 134 182
0.600025 0.109282 0.0174364 4 92 186
0.615968 0.162967 -0.00123527 0 108 97
0.30348 -0.269297 0.0064801 0 141 129
0.309452 -0.262155 0.00693141 0 143 131
0.318101 -0.247505 0.00510194 0 143 131
0.321644 -0.24003 0.00350227 0 143 130
0.332223 -0.223918 0.00230603 0 145 133
0.348781 -0.200653 0.00156077 0 143 135
0.35292 -0.194836 0.00137445 0 143 135
0.380465 -0.153638 -0.00130548 0 149 138
0.509102 -0.0665327 0.0469117 61 207 130
0.525839 -0.0492587 0.0497588 67 193 113
0.5852 0.0703532 0.0262043 174 248 114
0.589492 0.0751354 0.0267312 173 230 98
0.59289 0.0811583 0.0258582 184 206 133
0.5963 0.0871982 0.0249846 127 176 177
0.604966 0.116854 0.0145133 16 67 159
0.607276 0.125093 0.011529 61 83 110
0.609441 0.130632 0.00999128 10 93 71
0.622602 0.171597 -0.00356278 0 111 98
0.658881 0.21633 -0.00159522 0 120 107
0.662931 0.222019 -0.00177748 0 125 110
0.6683 0.228315 -0.00129902 0 124 111
0.295793 -0.284549 0.0069478 0 142 127
0.319177 -0.252938 0.00661736 0 143 131
0.326452 -0.236489 0.00267982 0 141 130
0.330579 -0.230689 0.00249405 0 142 133
0.34193 -0.214741 0.00198317 0 144 134
0.346057 -0.208942 0.0017974 0 143 134
0.363313 -0.185942 0.00174273 0 144 136
0.376598 -0.163539 -0.00102129 0 148 137
0.388364 -0.149499 -0.00010679 0 146 134
0.394599 -0.144475 0.00177861 0 143 130
0.452791 -0.120011 0.0323725 148 193 81
0.458003 -0.118917 0.0357481 46 144 67
0.478099 -0.109365 0.045674 84 252 165
0.481175 -0.103797 0.0448135 219 247 141
0.489542 -0.088304 0.0422708 14 202 115
0.541172 -0.0394276 0.0536654 103 153 65
0.504107 0.00565306 -0.000984153 51 166 97
0.521017 0.0256755 0.000420834 0 128 113
0.584074 0.0644493 0.0264636 181 157 117
0.603711 0.102005 0.0198036 0 127 162
0.606912 0.111485 0.0167714 0 90 148
0.616 0.15166 0.000477819 0 105 89
0.620815 0.165898 -0.00407101 37 78 79
0.632017 0.181637 -0.0045752 80 24 28
0.638127 0.190222 -0.00485021 34 105 90
0.641857 0.196709 -0.00574014 0 121 104
0.65101 0.205833 -0.00398605 58 136 76
0.303504 -0.278154 0.00673023 0 144 131
0.317621 -0.259562 0.00681878 0 143 131
0.32542 -0.244875 0.00429589 0 145 133
0.340272 -0.221522 0.00217952 0 145 133
0.35982 -0.194055 0.00129966 0 147 139
0.383081 -0.158888 -0.00119516 0 149 138
0.473625 -0.116176 0.0439584 59 70 55
0.487252 -0.0945444 0.0418972 0 154 78
0.528479 -0.0552596 0.0509009 148 197 99
0.534159 -0.0497642 0.0520931 21 179 95
0.51319 0.0164666 -0.00270754 0 130 109
0.57824 0.0569119 0.0240467 188 194 187
0.602383 0.0933203 0.0215121 105 175 87
0.613803 0.121794 0.0137586 0 76 133
0.658594 0.208341 -0.00201255 0 117 96
0.325457 -0.251736 0.0058793 0 144 132
0.332478 -0.236913 0.00265978 0 143 134
0.338633 -0.228265 0.00238274 0 144 132
0.354021 -0.206644 0.00169014 0 148 139
0.358124 -0.200878 0.00150545 0 147 139
0.375271 -0.178026 0.0014596 0 149 141
0.380996 -0.167501 -0.000249892 0 148 137
0.394734 -0.150679 0.000583599 0 144 134
0.509309 -0.0764884 0.0462386 28 204 127
0.509462 0.0105205 -0.00458022 50 166 88
0.527429 0.0246057 0.00114407 0 130 116
0.61109 0.106197 0.0184292 0 110 130
0.615121 0.114341 0.0167959 0 100 137
0.619369 0.125269 0.0137013 19 90 132
0.669167 0.218797 -0.00233197 0 123 110
0.312077 -0.27248 0.00517083 0 142 130
0.317803 -0.266908 0.00636876 0 143 130
0.331454 -0.245254 0.00429868 0 142 129
0.347241 -0.220598 0.0021325 0 147 136
0.351332 -0.214849 0.00194835 0 145 134
0.366675 -0.193291 0.00125778 0 146 138
0.418161 -0.134558 0.00694639 0 118 107
0.479414 -0.11777 0.0449471 54 61 44
0.492926 -0.0925988 0.0406998 71 212 115
0.514652 -0.0744443 0.0470001 124 216 132
0.53383 -0.0573932 0.0519595 33 200 116
0.586013 0.0555118 0.0263207 241 45 42
0.592222 0.0654729 0.0253134 246 51 36
0.593753 0.0713359 0.023061 248 168 156
0.599588 0.0820083 0.0213428 172 186 103
0.607937 0.0974503 0.0187836 86 145 47
0.666189 0.0815696 0.0736591 123 0 15
0.67078 0.0867842 0.0741803 164 0 21
0.659321 0.201812 -0.00245238 150 200 82
0.306495 -0.284733 0.00557084 0 146 134
0.32541 -0.260624 0.00617895 0 146 134
0.364986 -0.200081 0.00147868 0 147 136
0.375921 -0.185951 0.00171629 0 148 139
0.384364 -0.172855 0.000606528 0 148 136
0.42377 -0.133531 0.00831957 0 115 104
0.463762 -0.127942 0.0364391 32 75 55
0.484551 -0.113542 0.0442604 121 244 163
0.490648 -0.0988058 0.0403373 179 192 69
0.504807 -0.0850817 0.0433487 44 216 146
0.522067 0.0181581 -0.00413187 21 136 86
0.533769 0.0259601 0.000449643 0 132 117
0.591551 0.0590142 0.026309 228 68 63
0.596593 0.0759724 0.0202441 186 46 38
0.603848 0.0873993 0.0191878 109 73 14
0.622112 0.113062 0.0183658 0 104 122
0.625178 0.119838 0.0167682 0 102 128
0.66885 0.210821 -0.00271128 0 123 110
0.675153 0.218443 -0.00226523 0 121 108
0.311275 -0.281186 0.00478053 0 148 139
0.345013 -0.23255 0.00253031 0 145 132
0.359249 -0.212548 0.00188957 0 144 136
0.363316 -0.206833 0.0017065 0 145 134
0.374226 -0.192736 0.00194714 0 146 138
0.394129 -0.162308 -0.000412028 0 148 137
0.488708 -0.106993 0.0414266 85 236 125
0.53385 -0.0632668 0.0511016 128 198 110
0.614714 0.0996044 0.018195 92 144 32
0.619913 0.105678 0.0186926 78 141 39
0.666043 0.203741 -0.00313892 0 124 113
0.324775 -0.267837 0.0050688 0 145 135
0.332658 -0.257989 0.00544758 0 145 133
0.339142 -0.246422 0.0036885 0 145 133
0.342402 -0.240612 0.00280817 0 142 130
0.353554 -0.224943 0.00230621 0 145 133
0.372549 -0.199482 0.00218486 0 148 138
0.432908 -0.13433 0.0112059 0 117 106
0.47224 -0.130663 0.0402471 39 45 35
0.480745 -0.126083 0.0442658 58 59 51
0.499682 -0.0933336 0.0397455 77 192 107
0.557334 -0.0467267 0.0576916 143 192 97
0.531001 0.0194664 -0.00274609 0 135 98
0.590723 0.0456409 0.0290454 61 83 70
0.590786 0.0506436 0.0261081 187 134 124
0.62616 0.107716 0.0201143 77 139 44
0.629195 0.114438 0.0185105 48 122 69
0.686755 0.0884359 0.0797435 185 73 42
0.699251 0.0961662 0.0850499 153 187 102
0.661928 0.196056 -0.00423739 133 190 127
0.67711 0.212474 -0.00198629 0 126 111
0.337583 -0.252991 0.00392868 0 143 133
0.351946 -0.231585 0.00254671 0 146 135
0.370141 -0.20602 0.00172776 0 148 138
0.381994 -0.190591 0.00192979 0 150 141
0.416033 -0.147667 0.00333988 0 124 113
0.485856 -0.121874 0.0435938 109 99 88
0.541509 -0.0632878 0.0528576 65 209 136
0.549952 -0.0563269 0.0554197 53 194 118
0.595835 0.0547145 0.0254042 177 71 66
0.59712 0.0687771 0.0179909 180 37 48
0.600617 0.0773672 0.0156269 159 76 48
0.673508 0.0792833 0.0726601 170 0 22
0.676861 0.0839937 0.0725092 208 82 65
0.672027 0.20344 -0.00303346 0 125 110
0.319294 -0.280612 0.00345466 0 146 133
0.324152 -0.275008 0.00397344 0 144 134
0.331824 -0.266675 0.00510308 0 145 134
0.349348 -0.239606 0.0028394 0 143 135
0.360435 -0.224029 0.00234042 0 146 134
0.364466 -0.218365 0.00215897 0 147 136
0.380322 -0.197309 0.00218275 0 148 140
0.390957 -0.179921 0.000229169 0 150 141
0.478693 -0.132457 0.0420032 61 62 56
0.493615 -0.106599 0.0383817 27 241 151
0.497612 -0.0997604 0.0374643 53 248 161
0.528128 -0.0764485 0.0478903 145 209 132
0.534342 -0.0713857 0.049823 30 197 117
0.570153 -0.041856 0.0607481 8 179 101
0.608192 0.0861791 0.0140505 145 6 0
0.613408 0.0922851 0.0145532 130 10 0
0.629786 0.10307 0.0211907 98 139 35
0.329505 -0.273066 0.00465544 0 145 135
0.337335 -0.263285 0.00504242 0 146 135
0.373652 -0.211037 0.00266844 0 147 138
0.377665 -0.205399 0.0024878 0 148 138
0.387974 -0.189695 0.0012844 0 151 142
0.399619 -0.170892 -0.000718527 0 150 139
0.418542 -0.152843 0.00360554 0 127 120
0.427555 -0.143839 0.00541805 0 121 113
0.432552 -0.140479 0.00741137 0 120 111
0.441838 -0.13719 0.0129086 0 119 110
0.524737 -0.0817073 0.0461472 40 205 132
0.558308 -0.0552754 0.057206 101 200 113
0.562886 -0.0512834 0.0584787 134 205 110
0.536183 0.019768 -0.00612577 20 160 91
0.541708 0.0238714 -0.00415624 0 139 103
0.683768 0.083187 0.0744804 77 58 0
0.678253 0.202306 -0.00216867 0 126 111
0.344227 -0.255509 0.00344464 0 146 135
0.347445 -0.249771 0.00255851 0 146 135
0.372032 -0.217658 0.00293449 0 150 137
0.387037 -0.196576 0.00225913 0 149 140
0.397901 -0.17766 -0.000453851 0 148 140
0.406641 -0.166597 -0.000105873 0 148 137
0.473759 -0.139228 0.0376462 41 42 36
0.490732 -0.121466 0.0405889 40 75 51
0.492506 -0.115323 0.0382851 47 229 144
0.521336 -0.0869849 0.0444007 54 204 123
0.568735 -0.0483787 0.0593179 26 193 116
0.578271 -0.0410653 0.0625953 19 186 106
0.59974 0.0694251 0.0127014 161 53 56
0.620694 0.0964329 0.0132409 154 8 0
0.626489 0.0984893 0.0166867 134 20 0
0.66929 0.0649163 0.0718425 138 0 7
0.679169 0.0763621 0.0728806 154 0 12
0.672284 0.195695 -0.00539031 90 90 84
0.326722 -0.284442 0.0044315 0 149 136
0.338517 -0.269083 0.00464389 0 147 136
0.343504 -0.262077 0.00441945 0 147 136
0.355907 -0.242221 0.00237465 0 148 136
0.362679 -0.233919 0.00281307 0 149 139
0.366675 -0.228306 0.00263325 0 150 140
0.384653 -0.203044 0.00182403 0 151 141
0.394642 -0.18901 0.00137447 0 150 140
0.479663 -0.138758 0.0399135 54 55 49
0.486158 -0.133274 0.0418509 73 73 67
0.497279 -0.105507 0.0339177 45 226 125
0.541884 -0.0731886 0.0504916 53 217 147
0.549425 -0.0674504 0.0531252 108 202 126
0.575062 -0.0459982 0.0608904 0 181 106
0.606045 0.0800987 0.00895429 64 32 25
0.695985 0.091123 0.0755157 105 87 0
0.335222 -0.276823 0.0042556 0 147 134
0.378042 -0.216658 0.00232829 0 150 137
0.382026 -0.211062 0.00214901 0 148 138
0.39298 -0.195671 0.00165598 0 152 142
0.404802 -0.175425 -0.00111173 0 151 142
0.43587 -0.146308 0.0064322 0 124 115
0.441797 -0.141616 0.008401 0 120 112
0.491501 -0.127498 0.0404425 72 69 55
0.495016 -0.111657 0.0335776 120 200 92
0.504528 -0.100716 0.0346399 6 229 137
0.566992 -0.0565578 0.0586552 33 194 118
0.586284 -0.0403519 0.0644936 23 181 100
0.61268 0.0875832 0.0074164 142 11 0
0.63542 0.0965194 0.0205515 161 14 0
0.679564 0.0689074 0.0737085 181 0 32
0.693754 0.0852116 0.0753054 174 209 117
0.699674 0.0959525 0.0735486 168 0 17
0.708821 0.10517 0.0753724 137 0 13
0.6788 0.19381 -0.00375668 121 89 82
0.333753 -0.283201 0.0045361 0 145 131
0.355019 -0.250905 0.00208473 0 147 138
0.374225 -0.227545 0.00346161 0 149 139
0.391337 -0.202293 0.00194432 0 151 142
0.402536 -0.185348 0.000693114 0 149 139
0.561476 -0.0635379 0.0562973 234 165 53
0.58226 -0.0464204 0.0628331 4 190 110
0.596137 -0.0377986 0.0689325 9 170 94
0.601468 -0.035142 0.0716811 7 153 73
0.619549 0.0917736 0.00810926 176 16 0
0.676529 0.0618639 0.0735325 194 0 37
0.689555 0.0777497 0.0744404 94 137 35
0.686419 0.199022 -0.00311876 0 125 113
0.344986 -0.272926 0.00500169 0 146 136
0.34913 -0.265898 0.00406616 0 149 138
0.352497 -0.258756 0.00241646 0 146 135
0.36044 -0.247596 0.00205898 0 148 138
0.388975 -0.208707 0.00152366 0 151 141
0.400332 -0.195162 0.00251064 0 151 141
0.416732 -0.169707 0.000274344 0 149 138
0.436673 -0.15254 0.00611828 0 125 114
0.441613 -0.149215 0.00814308 0 122 111
0.486212 -0.140803 0.0398429 62 63 50
0.494233 -0.122299 0.0349876 244 236 107
0.500957 -0.104412 0.0294416 0 116 65
0.576845 -0.0532425 0.0604822 16 199 119
0.604192 0.0707786 0.0060689 97 93 86
0.610519 0.0808743 0.00503503 6 55 44
0.626757 0.0952508 0.00954753 180 18 0
0.631939 0.0952975 0.0138086 197 18 0
0.706987 0.0994748 0.0733509 137 0 15
0.339582 -0.284807 0.00547668 0 146 133
0.342713 -0.279205 0.00458479 0 147 136
0.365838 -0.244308 0.00204204 0 149 136
0.372317 -0.237609 0.00325233 0 150 137
0.383172 -0.222358 0.00276376 0 150 137
0.397974 -0.20156 0.00209753 0 150 140
0.413061 -0.179159 0.000667517 0 150 141
0.481178 -0.147196 0.0374035 44 45 37
0.492443 -0.133773 0.0383985 63 57 48
0.495303 -0.117727 0.0307599 168 196 74
0.496532 -0.11119 0.0277007 62 189 102
0.508792 -0.0999769 0.0309038 3 125 72
0.513926 -0.0975739 0.0336766 169 201 96
0.523185 -0.0941862 0.0392677 63 206 121
0.593753 -0.0431436 0.0661307 119 181 89
0.688404 0.0706033 0.0738862 143 0 4
0.684525 0.191439 -0.00479205 136 65 67
0.359574 -0.256195 0.00180476 0 150 137
0.476119 -0.153635 0.0349575 31 42 41
0.494981 -0.128333 0.0348615 50 71 49
0.541286 -0.0860691 0.0470826 22 189 112
0.550249 -0.0794748 0.0504438 47 223 149
0.565061 -0.0682622 0.0558004 41 202 124
0.583501 -0.0531514 0.0617466 0 193 113
0.60919 0.0729334 0.0041221 0 84 76
0.618803 0.0864399 0.00368944 0 59 45
0.676958 0.0553639 0.0718454 193 0 26
0.685737 0.0628991 0.074462 190 0 32
0.697294 0.0815375 0.0724359 119 153 51
0.70074 0.0887797 0.070775 99 131 41
0.713933 0.103716 0.07244 170 0 24
0.354731 -0.269669 0.00377189 0 148 136
0.364963 -0.252898 0.00180164 0 148 136
0.379066 -0.236674 0.00343142 0 149 138
0.383743 -0.2313 0.00397575 0 152 142
0.389112 -0.221362 0.00222445 0 152 141
0.392304 -0.21568 0.00132595 0 150 140
0.397223 -0.208769 0.00110454 0 150 141
0.446912 -0.15571 0.00943583 0 122 113
0.49791 -0.106799 0.0214824 4 60 1
0.570543 -0.066989 0.0574649 33 194 116
0.615803 0.0803946 0.002589 0 73 61
0.62563 0.0906107 0.0044112 6 59 51
0.682383 0.0566356 0.0735667 219 0 32
0.694114 0.0719225 0.0737935 137 31 0
0.348201 -0.284298 0.00507364 0 152 140
0.35309 -0.277429 0.00485359 0 151 138
0.361489 -0.262045 0.00220525 0 153 139
0.372083 -0.248355 0.00248521 0 151 137
0.388291 -0.22797 0.00326923 0 150 140
0.487714 -0.149176 0.0373896 58 58 50
0.49429 -0.138742 0.0363368 65 59 50
0.496212 -0.1241 0.0286826 59 224 147
0.496198 -0.116955 0.0241427 21 202 124
0.53058 -0.0937223 0.0384873 193 200 70
0.563673 -0.0746908 0.0544035 37 198 122
0.589244 -0.0542852 0.0630906 8 201 124
0.603278 -0.0441202 0.0685131 166 184 72
0.611492 -0.0385499 0.0719273 13 171 90
0.662787 -0.0249901 0.1067 28 116 112
0.706903 0.0919254 0.0699032 92 0 0
0.36686 -0.258753 0.00221846 0 150 137
0.378182 -0.245227 0.00322628 0 151 142
0.447058 -0.161556 0.00847192 0 125 117
0.492112 -0.144713 0.0360334 117 102 95
0.495908 -0.134613 0.0328278 38 51 38
0.511504 -0.098405 0.0230214 0 79 59
0.517795 -0.0967138 0.0272904 0 94 70
0.524032 -0.0950985 0.0315619 0 116 89
0.612005 0.0678222 0.00256515 0 100 89
0.624837 0.08466 0.00274635 0 77 72
0.693779 0.0659738 0.0732373 184 0 30
0.69912 0.0746695 0.0722382 128 9 0
0.372207 -0.255482 0.00224047 0 149 139
0.38619 -0.239401 0.00389298 0 150 138
0.394193 -0.226966 0.00277211 0 151 140
0.429359 -0.181122 0.00347126 0 148 140
0.452198 -0.162105 0.0108102 0 125 118
0.486344 -0.155722 0.0358954 57 58 50
0.558923 -0.0822659 0.0508839 13 194 116
0.579899 -0.0670553 0.0590673 206 202 84
0.611642 0.0607356 0.00439439 108 185 168
0.61708 0.0719415 0.00186776 0 96 84
0.632559 0.0901248 0.00345294 0 75 64
0.703255 0.0813108 0.0694884 110 19 0
0.714731 0.0938699 0.0712538 164 0 22
0.357552 -0.28386 0.00545812 0 151 136
0.361601 -0.276985 0.00451329 0 153 138
0.365665 -0.27009 0.00356782 0 151 140
0.392429 -0.234857 0.00388837 0 149 139
0.401863 -0.218044 0.00117604 0 150 140
0.407452 -0.211377 0.00168702 0 150 142
0.496854 -0.114216 0.0159646 0 110 75
0.540819 -0.091565 0.0391503 224 227 121
0.546851 -0.0902036 0.0434542 60 203 115
0.624443 0.0780962 0.00183375 0 91 79
